# .PCD v0.7 - Point Cloud Data file format
VERSION 0.7
FIELDS x y z rgb
SIZE 4 4 4 4
TYPE F F F F
COUNT 1 1 1 1
WIDTH 1022
HEIGHT 1
VIEWPOINT 0 0 0 1 0 0 0
POINTS 1022
DATA ascii
0.28483245 0.075060852 1.0057575 9.6776587e-39
0.29429853 0.074038684 1.0032668 1.0231177e-38
0.30516881 0.074360326 1.0011071 9.2163162e-39
0.3148905 0.074929208 1.0020002 9.1237632e-39
0.32506031 0.074545436 1.0039656 8.7560625e-39
0.33465716 0.074000686 1.0034446 9.1248338e-39
0.34497246 0.073610798 1.0016251 8.2961591e-39
0.3555308 0.074249372 1.0026191 9.0322851e-39
0.36526179 0.075134888 1.0057586 8.756417e-39
0.37451923 0.074705072 1.0033033 7.8355453e-39
0.38520959 0.074601494 1.0044193 8.1103386e-39
0.39436999 0.075035147 1.0038928 8.2028817e-39
0.40434819 0.075778432 1.005 7.6500751e-39
0.41556379 0.074664615 1.005788 7.4649706e-39
0.42483863 0.073883414 1.0023685 6.9128688e-39
0.43533018 0.075149015 1.0038999 7.2827331e-39
0.4450019 0.074634373 1.0030001 7.0057861e-39
0.45479178 0.074055977 1.0016087 7.7433413e-39
0.46462703 0.072882071 1.0028501 7.2816541e-39
0.47399798 0.070936874 1.0033334 7.3731281e-39
0.48652571 0.071587533 1.0026366 7.4642517e-39
0.49564266 0.074463353 1.0038695 6.6362889e-39
0.50530547 0.074673764 1.0056564 5.7150501e-39
0.51353252 0.07216952 1.0039231 6.3589817e-39
0.52530402 0.071883202 1.0020001 6.4515417e-39
0.53160369 0.072389588 1.0003333 6.5437373e-39
-0.57193285 0.081705503 1.0075001 8.6667283e-39
-0.56451088 0.08484672 1.0032858 8.2972311e-39
-0.55627179 0.085448802 1.0062917 8.2965025e-39
-0.54482388 0.085211404 1.0044192 8.5723747e-39
-0.53520197 0.085063711 1.0048096 8.1124727e-39
-0.52540147 0.084918119 1.0027599 8.2961535e-39
-0.51558191 0.085166909 1.0039133 8.2972283e-39
-0.50623751 0.084230565 1.0019412 8.3879876e-39
-0.49350452 0.084344216 1.001158 8.4801735e-39
-0.48548746 0.085094877 1.0044839 9.0326242e-39
-0.47491321 0.085481912 1.004591 9.0337088e-39
-0.46501708 0.084569022 1.0038948 8.3890568e-39
-0.4546943 0.085300654 1.0031073 9.2173784e-39
-0.4449884 0.084666766 1.0042402 9.4021326e-39
-0.43428597 0.084740974 1.0022 8.5727292e-39
-0.42487749 0.083680183 1.0021429 9.3102915e-39
-0.4149386 0.085102864 1.0031538 9.4017654e-39
-0.40494367 0.085330851 1.0029566 8.6652836e-39
-0.3948822 0.08428555 1.0017917 9.033713e-39
-0.38592488 0.085489236 1.0052222 1.0138251e-38
-0.37485912 0.084902719 1.0024616 9.3092251e-39
-0.36676541 0.084600553 1.0016001 9.402843e-39
-0.35468218 0.083501302 1.0024707 1.0137182e-38
-0.3447502 0.083826795 1.0020527 9.7701976e-39
-0.33516747 0.085125796 1.0034231 1.0597792e-38
-0.325674 0.085641794 1.0059599 9.9545931e-39
-0.3155455 0.085138857 1.0052222 1.0231527e-38
-0.30657649 0.084233239 1.0032001 1.1245679e-38
-0.29444313 0.084207572 1.0026363 1.0138607e-38
-0.28509688 0.084957406 1.003889 1.0507393e-38
-0.27517202 0.084714837 1.0033911 1.1059485e-38
-0.26577783 0.086654156 1.0051054 1.1150613e-38
-0.25497165 0.085174091 1.0050476 1.1059497e-38
-0.2440764 0.084176637 1.0033001 1.1613383e-38
-0.23477128 0.085211158 1.0026926 1.0874736e-38
-0.22479632 0.084947675 1.0036788 1.1059126e-38
-0.21525155 0.085635625 1.0069258 1.1428629e-38
-0.2044718 0.084297746 1.003143 1.1521903e-38
-0.19512813 0.085179634 1.0040871 1.0784705e-38
-0.18530375 0.085264996 1.0050334 1.0507758e-38
-0.17492965 0.084216528 1.0026501 1.1336795e-38
-0.16233175 0.083320729 1.0005001 1.1612663e-38
-0.15558229 0.082131058 1.0012001 1.0598153e-38
-0.14796455 0.081124306 1.0003333 1.898727e-38
-0.13482761 0.086710453 1 2.3509886e-38
-0.11214345 0.084109746 1.0005834 2.3417689e-38
-0.10624191 0.084405564 1.0012144 2.3325494e-38
-0.094405793 0.082950614 1.002625 2.3509886e-38
-0.083848715 0.084240668 1.0011053 2.3509886e-38
-0.07588698 0.084337778 1.0009999 2.3509886e-38
-0.064475693 0.084121086 1.001591 2.3509886e-38
-0.054481491 0.084919043 1.0009601 2.3509886e-38
-0.045360725 0.085234687 1.0028335 2.3509886e-38
-0.035162278 0.084918045 1.0037502 2.3509886e-38
-0.025993392 0.083050467 1.001 2.3509886e-38
-0.01491423 0.083736785 1.0012144 2.3509886e-38
-0.0076972852 0.08262454 1.0014999 2.3509886e-38
0.035568971 0.083841495 1 2.3509886e-38
0.042798668 0.085463077 1 2.3509886e-38
0.054980926 0.081137821 1.0005 2.3509886e-38
0.097588688 0.086014166 1.0015556 1.0600686e-38
0.10426328 0.084568664 1.0018184 1.0877994e-38
0.1143377 0.085200094 1.0042633 1.1246408e-38
0.12545197 0.086276703 1.0063479 1.0139337e-38
0.13531739 0.085461035 1.0055417 1.1152768e-38
0.14484036 0.085172735 1.0031483 1.0968028e-38
0.1553008 0.08546605 1.0055833 1.1520118e-38
0.16477735 0.085065141 1.00272 1.0968755e-38
0.17451592 0.08501114 1.0012223 1.0693229e-38
0.18515405 0.084641047 1.0029999 1.0324099e-38
0.19514783 0.08465454 1.0028636 1.0414489e-38
0.20508258 0.085069843 1.0027002 1.0507049e-38
0.21332383 0.083230488 1.0009 1.1152068e-38
0.22571409 0.084112115 1.0005294 1.069036e-38
0.23577587 0.083872803 1.0021111 1.0599601e-38
0.24539135 0.08424177 1.0030454 9.8613255e-39
0.25488716 0.083647415 1.0019445 1.0414138e-38
0.2653228 0.084290802 1.0036365 9.0333669e-39
0.27448654 0.083864607 1.0017999 9.310667e-39
0.28540546 0.084432177 1.0016668 9.4943408e-39
0.29205716 0.081259467 1.0020001 8.2972508e-39
0.30362886 0.082032807 1 8.018866e-39
0.31539336 0.082581669 1.001 8.9404496e-39
0.32435191 0.083124265 1 8.8478966e-39
0.33147374 0.081747994 1.0003333 8.847898e-39
0.34637973 0.08423017 1.0001667 8.2021671e-39
0.35514948 0.082189634 1.0002857 8.0188534e-39
0.36575419 0.084995046 1.0028261 8.4798273e-39
0.37534422 0.084784135 1.0024999 8.3887107e-39
0.38338822 0.084191635 1.0015833 7.5585955e-39
0.40631652 0.082128659 1.0011667 7.6500793e-39
0.41569868 0.083402082 1.0040001 7.3738539e-39
0.42104888 0.083079584 1.0013335 6.7306411e-39
0.43714407 0.081239194 1.0017501 7.1901801e-39
0.44414783 0.082835615 1.0004545 6.4529682e-39
0.45133913 0.081097275 1 7.0968971e-39
0.49652135 0.08228337 1.0014286 6.7277628e-39
0.50374663 0.082537904 1.0016001 6.2667833e-39
-0.56388295 0.092534512 1.0022858 8.2968612e-39
-0.55715817 0.093031354 1.0016001 7.8362432e-39
-0.54203981 0.090543017 1.001 8.850035e-39
-0.5335508 0.093312077 1.0005834 8.2957878e-39
-0.52683133 0.094212778 1.0002 8.7567589e-39
-0.51166874 0.090633467 1.0020001 8.9404538e-39
-0.50877774 0.090452567 1 8.2028901e-39
-0.49032521 0.093304381 1.0005 7.8362516e-39
-0.48584327 0.093229398 1.0014706 8.1124755e-39
-0.47720182 0.091612466 1.001 9.4010508e-39
-0.45362002 0.091388091 1 9.7712626e-39
-0.44783008 0.094414964 1.0005455 8.9415187e-39
-0.42693517 0.090543017 1.001 9.5858064e-39
-0.41374609 0.092203036 1.0001429 9.4024843e-39
-0.40633574 0.092956871 1.0006155 9.3095726e-39
-0.38455865 0.093761027 1.0020477 1.0322639e-38
-0.37529647 0.094189018 1.0009048 9.401055e-39
-0.36612269 0.092688888 1.0008463 9.3099355e-39
-0.35657167 0.092370719 1.0005 9.2166637e-39
-0.3449783 0.090482712 1.0003333 1.0597426e-38
-0.33366013 0.091968752 1.0006666 1.0414843e-38
-0.32543349 0.092783563 1.0017895 9.1251771e-39
-0.3148632 0.091921084 1.0011818 9.8620205e-39
-0.30871439 0.091388091 1 1.0688907e-38
-0.29164299 0.092148118 1.001 9.6790656e-39
-0.28509119 0.090520412 1.0007501 1.0322637e-38
-0.27486724 0.092759758 1.0006667 1.1058776e-38
-0.2645331 0.092308924 1.0012002 1.1519388e-38
-0.25756273 0.095171399 1.0013638 1.0045343e-38
-0.23476708 0.093658663 1.0009334 1.1244961e-38
-0.22395238 0.092323624 1 1.0692859e-38
-0.21634011 0.091916263 1.0017 1.0784693e-38
-0.20982724 0.090543017 1.001 1.1705926e-38
-0.19403636 0.093571 1 1.1520477e-38
-0.18553993 0.091735274 1.00125 1.0508466e-38
-0.17988132 0.09147948 1.001 1.1244233e-38
-0.15726462 0.097936802 1 1.170629e-38
-0.13108811 0.090452567 1 2.3509886e-38
-0.10505274 0.090573177 1.0013335 2.3509886e-38
-0.060742147 0.091196857 1.0013335 2.3509886e-38
-0.055246025 0.091280296 1.0002857 2.3509886e-38
-0.045569107 0.090965554 1.0005 2.3509886e-38
-0.037651353 0.090573177 1.0013335 2.3509886e-38
-0.017674249 0.091167331 1.0010002 2.3509886e-38
0.03905917 0.090452567 1 2.3509886e-38
0.097468995 0.091959156 1.0018572 1.1521926e-38
0.10406347 0.091555491 1.0018334 1.1707392e-38
0.11558256 0.092744499 1.0013685 1.0877624e-38
0.12541787 0.093516909 1.0028001 1.0967662e-38
0.1334476 0.093512706 1.0015001 1.0415217e-38
0.14580362 0.091181785 1.0011667 1.0324099e-38
0.15480804 0.091426089 1.0015557 1.0508491e-38
0.16251624 0.090482712 1.0003333 1.0967306e-38
0.17774941 0.09277226 1.0008 1.1151336e-38
0.18315198 0.092592865 1.0006666 1.1337528e-38
0.19710165 0.091878466 1.00025 9.8616814e-39
0.20941566 0.090543017 1.001 1.0136804e-38
0.2110762 0.090452567 1 1.1705211e-38
0.22813186 0.090543017 1.001 1.0596019e-38
0.23000348 0.09147948 1.001 9.582575e-39
0.28643796 0.090633467 1.0020001 9.1244793e-39
0.31204271 0.090452567 1 9.0330095e-39
0.36608666 0.091654509 1.0017779 7.8355481e-39
0.37360045 0.092928827 1.0015001 7.7422707e-39
-0.55365169 0.10167892 1 8.5734635e-39
-0.22180879 0.018180408 1.0182002 1.7151355e-38
-0.21512881 0.01739588 1.0185 1.5401817e-38
-0.20978981 0.017813446 1.0190001 1.0148899e-38
-0.093506478 0.01875416 1.0183334 1.7982897e-38
-0.085133217 0.015821265 1.0176334 1.7614837e-38
-0.077502944 0.017036069 1.0182002 1.7613402e-38
-0.064004339 0.019710377 1.0185001 1.7245343e-38
-0.051651936 0.019720053 1.0190001 1.7245343e-38
-0.044909518 0.019212188 1.017375 1.6969119e-38
-0.038277406 0.0197007 1.018 1.7061313e-38
-0.028788628 0.019720053 1.0190001 1.7335026e-38
-0.014492415 0.019710377 1.0185001 1.7151714e-38
-0.009735872 0.019720053 1.0190001 1.7059878e-38
-0.22384252 0.024460493 1.0179286 1.724213e-38
-0.21490915 0.025758056 1.0182941 1.6323042e-38
-0.1024767 0.025797049 1.0157694 1.6784731e-38
-0.095162131 0.025354372 1.0156801 1.6785089e-38
-0.085573673 0.025326934 1.0145602 1.7060596e-38
-0.076501116 0.026192116 1.0164763 1.7152073e-38
-0.064822368 0.025372123 1.0163999 1.7520132e-38
-0.055526473 0.025238708 1.0172501 1.7244626e-38
-0.044834524 0.02535918 1.0157 1.6876925e-38
-0.037722304 0.025683362 1.0177144 1.7059555e-38
-0.024655979 0.024641454 1.0188334 1.7151743e-38
-0.016664147 0.023359941 1.0190001 1.6967716e-38
-0.009735872 0.021626661 1.0190001 1.6048253e-38
0.1179176 0.029253094 1.0190001 2.3509886e-38
0.12604523 0.026680693 1.0163751 2.304855e-38
0.13352169 0.027122295 1.0161539 2.2403542e-38
0.1407809 0.029253094 1.0190001 2.3325494e-38
0.54347944 0.027333068 1.0185001 8.2932963e-39
0.55232048 0.024486573 1.0190001 6.7292006e-39
-0.21415007 0.03426329 1.0178823 1.5763092e-38
-0.20737895 0.036023058 1.0178573 1.5307131e-38
-0.16355409 0.037803315 1.0182 1.6322683e-38
-0.15464121 0.035638597 1.016889 1.586243e-38
-0.14579973 0.03659955 1.017875 1.5863147e-38
-0.12672304 0.038729042 1.0175 1.7060603e-38
-0.11071548 0.036879532 1.0190001 1.6691138e-38
-0.10453411 0.034815188 1.0143999 1.7336143e-38
-0.094849266 0.034740984 1.0123601 1.8258148e-38
-0.085120723 0.034780465 1.01556 1.7519891e-38
-0.076119624 0.034194354 1.0174286 1.7887942e-38
-0.06425187 0.031863213 1.018625 1.6968106e-38
-0.056848284 0.031613421 1.0182501 1.6875958e-38
-0.045916956 0.031147471 1.0186001 1.6506826e-38
-0.0021147698 0.038786136 1.0190001 2.3509886e-38
0.0071847173 0.037231941 1.0171112 2.341769e-38
0.015355753 0.035691086 1.0151502 2.3509886e-38
0.022973539 0.035508245 1.0173125 2.2035113e-38
0.10912737 0.038710009 1.0170001 2.3509886e-38
0.11497581 0.035176538 1.0170953 2.3509886e-38
0.12502888 0.034830995 1.0148801 2.341769e-38
0.13459754 0.034852911 1.0154399 2.3140744e-38
0.14394708 0.034675766 1.0182858 2.2403537e-38
0.15030727 0.034972917 1.0190001 1.1339344e-38
0.3046346 0.038786136 1.0190001 1.1516169e-38
0.38465616 0.034972917 1.0190001 1.0047154e-38
0.39037201 0.038786136 1.0190001 8.6624277e-39
0.46658301 0.038786136 1.0190001 7.6497135e-39
0.48488531 0.036979388 1.0180001 7.6507925e-39
0.49413869 0.037240691 1.0159168 7.3734896e-39
0.50554645 0.035851754 1.0184705 6.9132303e-39
0.51435 0.036148481 1.0185626 6.3625733e-39
0.52450097 0.037819024 1.018625 6.4508228e-39
0.54410058 0.03746317 1.0175835 6.1749548e-39
0.5512889 0.036456648 1.0178001 7.0050714e-39
-0.51383173 0.047033545 1.0186667 8.2950759e-39
-0.50855303 0.045687191 1.0170001 8.112484e-39
-0.49558112 0.048319176 1.0190001 8.573811e-39
-0.48224422 0.047365874 1.0190001 8.5727278e-39
-0.47446603 0.048303373 1.0186667 8.6645605e-39
-0.39841211 0.048319176 1.0190001 9.4017766e-39
-0.38221726 0.048319176 1.0190001 9.3099495e-39
-0.37554878 0.048319176 1.0190001 8.5712985e-39
-0.33744329 0.048319176 1.0190001 1.0693215e-38
-0.31414136 0.046756703 1.0182 1.0598509e-38
-0.20651329 0.042261615 1.0185001 1.2812541e-38
-0.19645289 0.044505961 1.0190001 1.2630968e-38
-0.17247923 0.044859841 1.0174445 1.1803065e-38
-0.16542083 0.044834904 1.0169259 1.4106507e-38
-0.15564065 0.045307864 1.0149677 2.1206004e-38
-0.14515513 0.045220923 1.0143431 2.1298932e-38
-0.13399003 0.047342163 1.0185001 2.3509886e-38
-0.12672304 0.040632844 1.0175 1.7151794e-38
-0.11350317 0.048229512 1.017143 2.341733e-38
-0.1045735 0.045106854 1.0148278 2.3141099e-38
-0.095002778 0.044836406 1.0125359 2.2957071e-38
-0.08550559 0.045230255 1.01476 2.2403534e-38
-0.076090008 0.046116605 1.01775 2.3233296e-38
-0.064253971 0.04899003 1.0160002 2.3509886e-38
-0.054902844 0.047488783 1.0187144 2.3509886e-38
-0.043787189 0.047223896 1.0182223 2.3509886e-38
-0.035071861 0.046014167 1.0181251 2.3509886e-38
-0.025265144 0.045719497 1.017778 2.3509886e-38
-0.016396288 0.047342628 1.0185001 2.3509886e-38
-0.0012975715 0.044752575 1.0184287 2.3509886e-38
0.005744928 0.044119846 1.0143334 2.3509886e-38
0.01502959 0.043384686 1.0111765 2.3509886e-38
0.024600632 0.045118608 1.0151379 2.2034754e-38
0.033199515 0.046175312 1.0168571 2.3509886e-38
0.0456856 0.048752863 1.0167145 2.3509886e-38
0.051182669 0.048271757 1.018 2.3509886e-38
0.078227073 0.046755955 1.0182 2.3509886e-38
0.086210683 0.046156697 1.018625 2.3509886e-38
0.093665928 0.04639902 1.0187144 2.3509886e-38
0.10652422 0.045226425 1.0168096 2.3509886e-38
0.11522496 0.044706315 1.013926 2.3509886e-38
0.12508272 0.044511318 1.0141153 2.341769e-38
0.13456985 0.044609115 1.0163462 2.1020242e-38
0.14450052 0.044750657 1.0183572 1.0601041e-38
0.15312831 0.048307322 1.0187501 1.124463e-38
0.16824213 0.048271757 1.018 1.1428269e-38
0.17412323 0.044505961 1.0190001 1.1615556e-38
0.19795103 0.04694904 1.016889 1.1243168e-38
0.20343697 0.046016563 1.017909 1.0782916e-38
0.23434113 0.047659934 1.0185001 1.0966221e-38
0.24176051 0.045459267 1.0190001 1.087475e-38
0.25675049 0.048271757 1.018 9.8613184e-39
0.28847331 0.047636222 1.0180001 1.0785431e-38
0.29584372 0.047120988 1.0171667 9.4947177e-39
0.30492398 0.044612236 1.0171002 9.1262912e-39
0.31314215 0.045005597 1.0189476 9.5865392e-39
0.32521158 0.047937855 1.0190001 9.4932632e-39
0.33579633 0.047644749 1.0181668 9.8624115e-39
0.34607702 0.047819495 1.0165 1.0321946e-38
0.35437411 0.046397075 1.0186667 1.0138279e-38
0.36569118 0.046020336 1.01825 9.2177581e-39
0.37505293 0.046447422 1.0171876 9.1244947e-39
0.38464937 0.045711529 1.0148002 8.6631452e-39
0.39436558 0.044833418 1.016294 9.4925415e-39
0.40596071 0.045733448 1.0155456 8.940451e-39
0.41466072 0.044705268 1.0153811 8.7564198e-39
0.4224512 0.046378408 1.0182501 8.0177828e-39
0.43339741 0.046855059 1.0182501 7.8366243e-39
0.4561573 0.048224341 1.0170001 7.8344649e-39
0.46544787 0.046054915 1.0168 7.9270249e-39
0.4752169 0.047264002 1.0154666 7.4656936e-39
0.48483431 0.044833452 1.0143439 7.3745714e-39
0.49402702 0.045356501 1.0130345 7.0979873e-39
0.50434959 0.044874664 1.0158079 6.7291936e-39
0.5167132 0.04594963 1.0167038 6.4518976e-39
0.52462959 0.045610424 1.0143464 7.0047127e-39
0.53514946 0.046115566 1.01592 6.5451681e-39
0.54403412 0.044255454 1.0148277 6.9132345e-39
0.55042338 0.042452097 1.0155001 7.4653307e-39
-0.57403755 0.059080306 1.0167143 8.6667311e-39
-0.56423306 0.059238657 1.01825 8.0209988e-39
-0.55441517 0.05547107 1.01732 8.3890666e-39
-0.5458715 0.056294709 1.0175 8.4819783e-39
-0.53512114 0.056980859 1.0174706 8.2975955e-39
-0.52584046 0.05725041 1.0173335 8.3894254e-39
-0.51466453 0.056746885 1.0178636 8.8500378e-39
-0.50553483 0.057084534 1.0178419 9.1251869e-39
-0.49466106 0.056143444 1.0176666 8.2050271e-39
-0.48440182 0.056041948 1.0184667 8.4808979e-39
-0.47441438 0.055536754 1.0167408 8.1124657e-39
-0.46561328 0.056029566 1.0178002 8.2968654e-39
-0.45441929 0.057395216 1.0177001 8.480528e-39
-0.44545022 0.057917017 1.0179335 8.8486043e-39
-0.43544832 0.05815924 1.017 8.113193e-39
-0.42584264 0.057026729 1.0188572 8.2039383e-39
-0.41339967 0.057755936 1.0173334 8.8475253e-39
-0.40512168 0.054682642 1.0163795 8.9415159e-39
-0.39562783 0.055786423 1.0148 9.861303e-39
-0.38419309 0.055866402 1.0162965 9.2177497e-39
-0.37570059 0.055897638 1.0181251 8.9415103e-39
-0.36613786 0.056886185 1.0177647 9.5843616e-39
-0.35500723 0.056426357 1.0178571 9.5865238e-39
-0.34450799 0.055521727 1.0162859 9.1244653e-39
-0.3353723 0.055724453 1.0150399 1.0321209e-38
-0.32531038 0.056719348 1.0173638 1.0414481e-38
-0.31440991 0.055654991 1.0180625 1.0874736e-38
-0.30588901 0.056404334 1.0172919 1.0691424e-38
-0.2951979 0.056707103 1.0175002 1.1242444e-38
-0.2852203 0.057079602 1.0183077 1.1059485e-38
-0.27475244 0.056976248 1.0185 1.0967293e-38
-0.26793295 0.057436455 1.0184001 1.0416276e-38
-0.25637969 0.058654197 1.0182223 1.1061276e-38
-0.24344908 0.056677856 1.0184667 1.1428632e-38
-0.23590067 0.057156231 1.0179445 1.1429712e-38
-0.22338878 0.057435602 1.0168462 1.1336074e-38
-0.21505709 0.057010412 1.015389 1.1981085e-38
-0.20520858 0.057247121 1.0162941 1.2164029e-38
-0.19551462 0.05888588 1.0171002 1.170557e-38
-0.18565634 0.05944106 1.0190001 1.1153114e-38
-0.17199214 0.053031731 1.0180001 1.1153471e-38
-0.16571014 0.055177316 1.016143 1.1980714e-38
-0.15664072 0.055092826 1.0115882 2.1755997e-38
-0.14145821 0.05574137 1.0121819 2.3509886e-38
-0.13503265 0.055015143 1.01732 2.3509886e-38
-0.12537481 0.054657694 1.0157744 2.3509886e-38
-0.11613524 0.05415605 1.0135219 2.3509886e-38
-0.10537159 0.053140387 1.0116001 2.3509886e-38
-0.094299518 0.05491814 1.0132501 2.2772316e-38
-0.085114636 0.055056501 1.0139644 2.3509886e-38
-0.07502462 0.054970745 1.0145591 2.3509886e-38
-0.064708613 0.055280708 1.0145928 2.3509886e-38
-0.055579234 0.055107445 1.0161786 2.3509886e-38
-0.044745501 0.054947317 1.0155454 2.3509886e-38
-0.034724388 0.054964695 1.0161999 2.3509886e-38
-0.024914516 0.054849394 1.0163333 2.3509886e-38
-0.0155192 0.054929204 1.0148965 2.3509886e-38
-0.004736085 0.05513202 1.0164999 2.3509886e-38
0.0034116355 0.055342704 1.0143638 2.3418049e-38
0.025722342 0.05430143 1.0112143 2.2403898e-38
0.034225192 0.053989202 1.013036 2.3509886e-38
0.04509712 0.052107144 1.0128462 2.3509886e-38
0.055228755 0.054434434 1.0145926 2.341769e-38
0.064664595 0.054758597 1.0147692 2.3141102e-38
0.075162299 0.052795243 1.0135454 2.341769e-38
0.085197449 0.054526802 1.0135174 2.341769e-38
0.094891764 0.054922264 1.0134376 2.3509884e-38
0.10539944 0.054548349 1.0150297 2.3417691e-38
0.11551223 0.054992758 1.0128214 2.341769e-38
0.12478115 0.054877907 1.0138965 1.9176331e-38
0.13416614 0.05432266 1.0165653 1.0139703e-38
0.14519933 0.055432096 1.0166 1.1246048e-38
0.15482625 0.054677345 1.0154688 1.1521916e-38
0.16504268 0.054817785 1.0158669 1.0875831e-38
0.17451166 0.055257071 1.0161034 1.0968748e-38
0.18533856 0.054881185 1.0154549 1.0967306e-38
0.19480848 0.054843079 1.0133104 1.1335363e-38
0.20513183 0.05487648 1.0168667 1.050813e-38
0.21483576 0.055807717 1.0165358 1.1153498e-38
0.2247206 0.054780893 1.0151876 1.0599251e-38
0.2346798 0.054357335 1.0147098 1.1059503e-38
0.24486698 0.054829527 1.0160668 1.0784719e-38
0.2548033 0.05525288 1.016 1.0414855e-38
0.26483029 0.054778304 1.0172812 1.041378e-38
0.27496168 0.054961212 1.0162812 9.5865308e-39
0.28513309 0.055042244 1.0169311 1.0046066e-38
0.29509845 0.054808799 1.0156944 9.1248394e-39
0.30493882 0.055101398 1.0156155 9.0333739e-39
0.31503561 0.054860819 1.0161891 9.3099509e-39
0.32472849 0.054633692 1.0151539 1.004715e-38
0.3347725 0.055044975 1.0159118 1.0138635e-38
0.34497157 0.054840978 1.0142061 9.2181126e-39
0.3553198 0.054780535 1.0145863 9.032648e-39
0.3646591 0.054756612 1.0141612 9.3095866e-39
0.37494674 0.054656643 1.0144546 9.3103111e-39
0.38504261 0.05546169 1.0126787 8.5716614e-39
0.39561045 0.054566432 1.0142415 8.4798357e-39
0.4046374 0.055030543 1.0135002 8.3883604e-39
0.41645628 0.054185271 1.0120909 7.8344663e-39
0.42520756 0.052868176 1.0138824 7.927741e-39
0.43544966 0.055493601 1.0137919 7.7429952e-39
0.44497904 0.05453591 1.0144285 7.7426336e-39
0.45471296 0.05247324 1.0133811 7.1894585e-39
0.46541753 0.053562481 1.0132177 7.282017e-39
0.47497463 0.052949753 1.0132353 7.1891011e-39
0.48597157 0.054111879 1.012 7.1901773e-39
0.49537873 0.053271923 1.0122143 7.0972656e-39
0.5058189 0.053457968 1.0122942 6.9132303e-39
0.51539379 0.054553207 1.0116001 6.4529766e-39
0.52515775 0.055154998 1.0105653 7.0050728e-39
0.53477162 0.053264655 1.0126925 7.0965468e-39
0.54420078 0.051723111 1.011 7.2827359e-39
-0.57284039 0.064487688 1.0139501 8.4819755e-39
-0.56513888 0.065487266 1.0167503 8.481614e-39
-0.55487502 0.065600328 1.0157827 8.2975871e-39
-0.54498208 0.065235607 1.0152001 8.2053844e-39
-0.53440011 0.064968228 1.0142862 8.4812553e-39
-0.52486813 0.065453954 1.0150001 8.4812567e-39
-0.5153966 0.065201521 1.0147308 8.6638501e-39
-0.50503337 0.065081149 1.0140002 8.3876247e-39
-0.49442077 0.065204754 1.0137669 8.5723747e-39
-0.48601988 0.065994494 1.0165883 8.2043124e-39
-0.47490817 0.064390831 1.0126429 8.7571261e-39
-0.46318278 0.064417094 1.0106668 8.665299e-39
-0.45465666 0.064915195 1.0139585 8.6649277e-39
-0.44439846 0.06519112 1.0134816 9.1255443e-39
-0.43473089 0.065199986 1.0157586 8.3894142e-39
-0.42498228 0.065444775 1.0173464 8.7560387e-39
-0.41497207 0.065181501 1.0157393 8.8486043e-39
-0.40529546 0.065352671 1.0132178 9.4943142e-39
-0.39430663 0.063117206 1.0117334 9.6776306e-39
-0.38443539 0.064234912 1.0138261 9.5854434e-39
-0.37499478 0.065314129 1.0154074 9.4014081e-39
-0.36505222 0.065233678 1.0152401 9.4943184e-39
-0.35492983 0.065193892 1.01344 9.6765558e-39
-0.34496272 0.065128736 1.0124617 9.8613114e-39
-0.33469579 0.065087222 1.0118078 1.0229368e-38
-0.32554933 0.064789213 1.0142401 1.096657e-38
-0.31522328 0.065282941 1.0137694 1.0046063e-38
-0.30469173 0.065054059 1.0135002 1.004678e-38
-0.29489332 0.065168872 1.0142001 1.0598149e-38
-0.2855033 0.065153435 1.0151539 1.08769e-38
-0.27513668 0.065064885 1.0148847 1.1060927e-38
-0.26545271 0.065929554 1.0169232 1.1244955e-38
-0.25406072 0.065103032 1.0131999 1.1336076e-38
-0.24445525 0.064968497 1.0144076 1.1336433e-38
-0.23464146 0.065532118 1.0167143 1.069035e-38
-0.22508346 0.064861111 1.01535 1.152047e-38
-0.21445733 0.063334674 1.0108572 1.2256586e-38
-0.20332187 0.064262435 1.0111251 1.1151323e-38
-0.19510487 0.064923383 1.0128 1.1337504e-38
-0.18504228 0.065217778 1.015036 1.1797048e-38
-0.1748157 0.06601458 1.0156001 1.179777e-38
-0.165149 0.065152921 1.01396 1.1797408e-38
-0.15698376 0.065963656 1.0102223 1.5112818e-38
-0.14184123 0.061120789 1.01 2.3509886e-38
-0.13452643 0.064515874 1.0130435 2.3509886e-38
-0.12575594 0.064410456 1.0112501 2.3509886e-38
-0.11766911 0.061876703 1.0100001 2.3509886e-38
-0.093640499 0.064774677 1.0129446 2.341769e-38
-0.086423486 0.065381683 1.0109445 2.3509886e-38
-0.07225024 0.064438544 1.0119231 2.3509886e-38
-0.065277435 0.064077586 1.0119444 2.3509886e-38
-0.055704303 0.062915519 1.011889 2.3509886e-38
-0.045163281 0.064385235 1.0123501 2.3509886e-38
-0.035554282 0.064363226 1.0127501 2.3509886e-38
-0.02514291 0.063158505 1.0145715 2.3509886e-38
-0.014706898 0.061516441 1.0113335 2.3509886e-38
-0.0069095641 0.062733322 1.011091 2.3509886e-38
0.0016808038 0.061120789 1.01 2.3509886e-38
0.032279599 0.061888803 1.0102 2.3509886e-38
0.047003552 0.066790104 1.01 2.3509886e-38
0.055122647 0.064711362 1.0122352 2.3509886e-38
0.060252503 0.062095936 1.0105 2.3509886e-38
0.086660966 0.061120789 1.01 2.2772321e-38
0.096935079 0.061925866 1.0108 2.341769e-38
0.10428163 0.061920229 1.0115 2.32333e-38
0.11641175 0.064631455 1.0123334 1.4843485e-38
0.12474051 0.065061279 1.0125201 1.0320499e-38
0.13453566 0.06569235 1.0150001 1.1336799e-38
0.14443813 0.06409128 1.0149094 1.1336803e-38
0.15541804 0.064077228 1.0111579 1.1150973e-38
0.16478255 0.064782202 1.0107391 1.0507403e-38
0.17531168 0.064512216 1.0118847 1.1428641e-38
0.18580385 0.065234147 1.0151601 1.1060225e-38
0.19452807 0.064871065 1.0120001 1.0507407e-38
0.20470005 0.064494178 1.0126958 9.5872539e-39
0.21527077 0.064545386 1.0147824 1.0691788e-38
0.22448213 0.065186657 1.0133336 1.0599601e-38
0.23498318 0.064603537 1.0105883 1.0507047e-38
0.24586014 0.064934298 1.0130002 1.0599962e-38
0.25481158 0.063500777 1.0121875 1.0782194e-38
0.26502344 0.064158492 1.01325 1.0231177e-38
0.27458975 0.063830972 1.01255 1.0323733e-38
0.28491923 0.063142277 1.0121334 9.4028626e-39
0.29363912 0.064341716 1.0122105 1.0323378e-38
0.30514088 0.062312648 1.0126364 1.0138624e-38
0.31493288 0.062017567 1.0123001 1.1060938e-38
0.32539472 0.063674822 1.0117648 1.0047506e-38
0.33422482 0.064467348 1.0113183 9.1251911e-39
0.34588975 0.063457422 1.0115 9.2170364e-39
0.35499927 0.064325102 1.0108668 9.4010704e-39
0.36495695 0.065176748 1.0114001 8.9411726e-39
0.37384185 0.063369669 1.0117334 8.941167e-39
0.38390428 0.061739065 1.0112859 8.5720216e-39
0.39737236 0.061973523 1.0116 9.1241205e-39
0.40559363 0.065100536 1.012 8.0181373e-39
0.41325295 0.064841427 1.0108236 8.111049e-39
0.42186046 0.061120789 1.01 7.1905417e-39
0.43536556 0.061161131 1.0106667 8.2954445e-39
0.44671145 0.062197972 1.0104445 7.5593186e-39
0.49645412 0.066790104 1.01 7.1905389e-39
-0.57310218 0.072477363 1.0129001 8.5741726e-39
-0.56504303 0.073569268 1.0115294 8.2057474e-39
-0.55520892 0.07254187 1.0111668 8.7585624e-39
-0.54353595 0.073973514 1.0121112 8.2965123e-39
-0.53498828 0.074283786 1.0104737 8.4801805e-39
-0.51379156 0.073549293 1.011 7.9284472e-39
-0.50587916 0.073190019 1.0114001 8.3879722e-39
-0.49374592 0.07153479 1.0117778 8.1113895e-39
-0.48547184 0.074172512 1.0120871 8.4805448e-39
-0.47507262 0.070919536 1.0105 8.5723775e-39
-0.46381816 0.071399763 1.0102857 8.5738152e-39
-0.45515123 0.07198555 1.0113001 8.4812609e-39
-0.44475013 0.073583573 1.0102918 9.1259016e-39
-0.43495575 0.07284192 1.0109444 8.9425851e-39
-0.42467585 0.072933279 1.0122222 8.7574834e-39
-0.41404611 0.072462611 1.012077 8.7556771e-39
-0.40579182 0.072332412 1.0106366 1.0044254e-38
-0.39130998 0.07154946 1.0105 1.03205e-38
-0.38299718 0.070639506 1.011 8.8489532e-39
-0.37236866 0.071802072 1.0114001 9.4003291e-39
-0.36090118 0.070569634 1.01 1.0506667e-38
-0.35564542 0.072226584 1.0111668 9.5832784e-39
-0.34458971 0.07283248 1.0111538 9.6761985e-39
-0.33349198 0.074284457 1.0105556 1.0046067e-38
-0.3260783 0.074433185 1.0122612 1.0322647e-38
-0.31998774 0.07165613 1.0120001 1.0598148e-38
-0.30575657 0.07231988 1.0104547 1.0415566e-38
-0.294072 0.073365487 1.0111251 1.1059852e-38
-0.28754225 0.074058436 1.0100002 1.07847e-38
-0.27143472 0.074411005 1.0108751 1.1429709e-38
-0.26517263 0.074555404 1.0128336 1.1244236e-38
-0.25580433 0.074539222 1.0126003 1.142863e-38
-0.24654178 0.073673777 1.0111002 1.050811e-38
-0.23167443 0.07218039 1.0114001 1.10595e-38
-0.22778867 0.071935527 1.0115001 1.1153491e-38
-0.20050216 0.074394837 1.0106 1.1244954e-38
-0.19527471 0.074681431 1.011174 1.1797046e-38
-0.18385313 0.071258411 1.0108335 1.1336429e-38
-0.17496209 0.071543947 1.0104166 1.1521186e-38
-0.16450261 0.070569634 1.01 1.2717917e-38
-0.092262968 0.071946874 1.0116667 2.3509886e-38
-0.068214275 0.072482698 1.0103333 2.3509886e-38
-0.041784503 0.073931471 1.0107501 2.3509886e-38
-0.038726538 0.074469969 1.0116364 2.3509886e-38
0.053691339 0.071620733 1.0115 2.3509886e-38
0.11713095 0.074510992 1.0122001 1.0784705e-38
0.12469019 0.074506126 1.0121199 1.1705583e-38
0.13468897 0.073935561 1.0116005 1.1246405e-38
0.14156598 0.070639506 1.011 1.1244226e-38
0.15779249 0.071199559 1.01 1.1244268e-38
0.16328348 0.072054982 1.0102222 1.0414865e-38
0.17714311 0.0720708 1.0121429 1.0230824e-38
0.18491651 0.073326923 1.0129 1.0691089e-38
0.19317393 0.071364149 1.0123334 1.0138617e-38
0.21784955 0.072122306 1.0128572 1.0324453e-38
0.22392261 0.072571903 1.0115836 1.115385e-38
0.24331252 0.071409397 1.0112 9.7712808e-39
0.33404765 0.070569634 1.01 8.9407957e-39
0.36615127 0.0724594 1.01 8.3879904e-39
0.40513226 0.070616215 1.0106668 7.8348209e-39
0.41349825 0.075632311 1.0103333 7.6500709e-39
-0.57486439 0.080097705 1.011 8.9429621e-39
-0.54408062 0.080018483 1.01 8.2954263e-39
-0.53841531 0.080018483 1.01 7.7447664e-39
-0.51575392 0.080963366 1.01 8.205397e-39
-0.48585862 0.0800713 1.0106667 9.2188175e-39
-0.47798496 0.080963373 1.0100001 9.2173882e-39
-0.44581819 0.080176927 1.0120001 9.4024927e-39
-0.41188926 0.082853138 1.01 1.0046054e-38
-0.34012824 0.080018483 1.01 9.9556637e-39
-0.33308312 0.080806084 1.0104001 1.0230803e-38
-0.32553783 0.08014524 1.0116 1.0323366e-38
-0.31660169 0.080038294 1.01025 1.0232972e-38
-0.29197282 0.080018483 1.01 1.0602479e-38
-0.28914016 0.080018483 1.01 1.0233684e-38
-0.27097437 0.08067482 1.0103333 1.0783265e-38
-0.26443595 0.08170341 1.0110769 1.0229375e-38
-0.25892502 0.081908256 1.01 1.1242444e-38
-0.19547829 0.0800713 1.0106667 1.133643e-38
-0.041753497 0.081908248 1.01 2.3509886e-38
-0.038618617 0.081305355 1.0103333 2.3509886e-38
0.11835126 0.081947863 1.0105 1.1060948e-38
0.12329055 0.081839792 1.0115 1.1615538e-38
0.13135424 0.081278324 1.01 1.1427917e-38
0.1570444 0.081928991 1.01025 1.1614459e-38
0.41451222 0.080058098 1.0105 7.5578822e-39
-0.15131819 -0.012797954 1.0273335 1.6139012e-38
-0.14626603 -0.011825102 1.0265 1.5586923e-38
-0.15464523 -0.0055335001 1.0274446 1.7152793e-38
-0.14505352 -0.0052365731 1.0272413 1.6599625e-38
-0.13218464 -0.0040532639 1.0256363 1.5217787e-38
-0.12578149 -0.004082304 1.0248823 1.4388039e-38
-0.11920756 -0.0022235806 1.0265 1.401998e-38
-0.2215728 0.0069048577 1.0272501 1.7336821e-38
-0.21623752 0.0053531742 1.0270001 1.5677694e-38
-0.16567323 0.0025857075 1.029 1.2453754e-38
-0.14354753 0.00066038885 1.029 1.4756099e-38
-0.13307646 0.0035404391 1.026643 1.613973e-38
-0.12451562 0.0044828732 1.0228002 1.6048253e-38
-0.11518915 0.0044889483 1.0249199 1.5955341e-38
-0.10508782 0.0052715437 1.02732 1.6231565e-38
-0.094373755 0.005609788 1.0266316 1.6139012e-38
-0.08445622 0.0053985626 1.0252632 1.5862071e-38
-0.075997099 0.0052161301 1.0261875 1.5586206e-38
-0.064731546 0.0062292456 1.0270002 1.5953548e-38
-0.055374727 0.0071215699 1.0270001 1.6599983e-38
-0.042889934 0.007585784 1.0282 1.7244984e-38
-0.035201889 0.0079704737 1.0282 1.6785807e-38
-0.025197193 0.0083535379 1.0280001 1.6785089e-38
-0.015603336 0.0083616637 1.029 1.6509224e-38
-0.0021308546 0.0064162761 1.0263001 1.6785448e-38
0.0061366325 0.0060488447 1.024875 1.6876925e-38
0.015136353 0.0051317457 1.0259048 1.715279e-38
0.023299394 0.0062584421 1.0263336 1.6784372e-38
-0.23394063 0.017960232 1.0274445 1.7427579e-38
-0.22564338 0.014971399 1.0240527 1.7243549e-38
-0.21511322 0.012866312 1.0216668 1.5309267e-38
-0.20925386 0.015730724 1.023375 8.2117435e-39
-0.16692267 0.017400173 1.0284002 1.6876566e-38
-0.1314806 0.015038878 1.0249166 1.7061672e-38
-0.12451877 0.015009627 1.0228336 1.6969122e-38
-0.11511484 0.015033999 1.0242668 1.6969837e-38
-0.10563827 0.015040629 1.0251667 1.7062389e-38
-0.09616445 0.013911107 1.0239199 1.7338259e-38
-0.082598381 0.010578706 1.0200001 1.7982897e-38
-0.074229717 0.014597451 1.0235201 1.7522643e-38
-0.065341555 0.014672441 1.0234287 1.7430094e-38
-0.055660378 0.01469818 1.0238336 1.724606e-38
-0.04499492 0.013912759 1.0232964 1.6693613e-38
-0.034531474 0.01485188 1.0237241 1.6876566e-38
-0.024968667 0.014853952 1.0240346 1.6600701e-38
-0.01552785 0.015394232 1.0240437 1.6600342e-38
-0.0046176338 0.015150127 1.0226061 1.6784376e-38
0.0055417316 0.015042556 1.0247668 1.6139744e-38
0.015114429 0.015039206 1.0247 1.9086492e-38
0.023804385 0.015762042 1.0256087 2.0929764e-38
0.031183016 0.019253075 1.0280001 2.2587215e-38
0.11650272 0.019071853 1.0281429 2.3509886e-38
0.12476449 0.015875516 1.0261072 2.3048909e-38
0.13342808 0.01638156 1.0265626 2.2311344e-38
0.14308897 0.019427408 1.0287501 2.341769e-38
0.15591894 0.018927427 1.02775 2.3509886e-38
0.1643592 0.017414222 1.0277145 2.0281594e-38
0.32686388 0.019913577 1.029 1.1060935e-38
0.41921461 0.019913577 1.029 6.913596e-39
0.43396506 0.012854075 1.029 8.2965207e-39
0.47911936 0.017000312 1.0275 7.0983502e-39
0.4843286 0.016329885 1.02775 7.4664097e-39
0.49268624 0.01545761 1.0287501 7.7419162e-39
0.52464831 0.019528514 1.0290002 7.2827345e-39
0.53467613 0.019043451 1.0282223 7.2823772e-39
0.54425657 0.018056272 1.0272633 7.3742141e-39
0.5533545 0.016962592 1.0253334 6.8206759e-39
-0.4821668 0.02954017 1.029 8.94153e-39
-0.47928086 0.02954017 1.029 9.7720109e-39
-0.40314648 0.027064759 1.0290002 1.0322285e-38
-0.39077809 0.02954017 1.029 9.5861819e-39
-0.38436484 0.029219283 1.0290002 9.4932562e-39
-0.24315652 0.027280234 1.0285001 1.1429674e-38
-0.23483388 0.025574474 1.02435 1.391959e-38
-0.22675061 0.026712464 1.0212729 1.5763816e-38
-0.21440558 0.025059471 1.0214617 1.4387683e-38
-0.20787501 0.026871487 1.0252223 9.5035417e-39
-0.19031426 0.028521966 1.0270001 1.7154233e-38
-0.18440896 0.026815509 1.0261875 1.7245706e-38
-0.17506817 0.027664823 1.0262002 1.660106e-38
-0.16697378 0.026035737 1.0275335 1.6969478e-38
-0.15459307 0.026563166 1.0257 1.6876207e-38
-0.14653362 0.027847754 1.0248183 1.6324118e-38
-0.13173553 0.025636358 1.0269001 1.7338972e-38
-0.12446751 0.025524089 1.0223999 1.7245702e-38
-0.11511384 0.025568597 1.0242399 1.7245702e-38
-0.10772486 0.025041871 1.0222502 1.7061313e-38
-0.072729141 0.023571346 1.0206667 1.7520132e-38
-0.051702626 0.029281801 1.0200001 1.6784731e-38
-0.033308599 0.025391651 1.0212779 1.7151401e-38
-0.025313703 0.026220236 1.0207694 1.7796823e-38
-0.014553024 0.02718088 1.0229287 1.9362795e-38
-0.0048515615 0.025359351 1.0245003 1.9823054e-38
0.0055461009 0.025791692 1.026435 2.120497e-38
0.015275678 0.025741719 1.0247917 2.3325496e-38
0.024684489 0.025565056 1.0242001 2.3233656e-38
0.032515153 0.026110917 1.0255334 2.3325494e-38
0.044681158 0.029219283 1.0290002 2.3509886e-38
0.051735725 0.02954017 1.029 2.3509886e-38
0.068984374 0.028549738 1.028 2.3509886e-38
0.075099543 0.027271893 1.0258001 2.3509886e-38
0.083447039 0.027869638 1.0265834 2.3509886e-38
0.096815437 0.02702442 1.0275716 2.3509886e-38
0.10515226 0.028404394 1.0266668 2.3509886e-38
0.1152216 0.025842266 1.0252609 2.3509886e-38
0.1231034 0.023599915 1.0219232 2.3325494e-38
0.13679406 0.023611551 1.0224168 2.304891e-38
0.1454244 0.025393423 1.0237501 2.341769e-38
0.1549412 0.025573744 1.0244399 2.0559257e-38
0.16466391 0.02537703 1.0269547 1.0046789e-38
0.17487001 0.028898396 1.0290002 1.1430797e-38
0.18641385 0.029540172 1.029 1.0786146e-38
0.19199775 0.029511463 1.0280001 1.2073663e-38
0.20180564 0.02954017 1.029 1.1705225e-38
0.21746686 0.029030601 1.028 1.0691446e-38
0.2263363 0.02745441 1.0290003 1.1152064e-38
0.23469436 0.02829409 1.0282729 1.1429363e-38
0.24369146 0.027301418 1.0283848 1.1704875e-38
0.25279093 0.02954017 1.029 1.1058432e-38
0.27491662 0.027614851 1.029 1.1059852e-38
0.28068852 0.02954017 1.029 1.0784718e-38
0.30600935 0.025762677 1.0280999 1.1151711e-38
0.32595816 0.025988368 1.0281668 1.0231542e-38
0.33454579 0.026714832 1.0266525 9.4939835e-39
0.34453166 0.026610902 1.0274999 1.0599612e-38
0.35510793 0.02827928 1.0277274 9.7698515e-39
0.3629491 0.028540483 1.0276667 9.5858204e-39
0.37303925 0.02857751 1.0290002 9.8624101e-39
0.38865146 0.026943676 1.027889 9.4932758e-39
0.3955301 0.028247228 1.0265455 9.4003529e-39
0.40445811 0.027592022 1.0281668 9.7712836e-39
0.41825265 0.024726871 1.0290002 9.0315746e-39
0.4268685 0.027450839 1.0276667 8.9386503e-39
0.43520281 0.02577859 1.0262501 8.6635109e-39
0.44453308 0.026943913 1.0263751 8.4791141e-39
0.46832585 0.029482756 1.0270001 7.743714e-39
0.47616869 0.026308404 1.0262001 8.2954375e-39
0.48529911 0.02543183 1.0251669 7.282373e-39
0.4952319 0.025817756 1.0272274 7.9263144e-39
0.50660598 0.028512917 1.0267501 7.5568018e-39
0.51471812 0.025888031 1.0239311 6.8196068e-39
0.52495784 0.025540464 1.023231 6.7302726e-39
0.53541481 0.025420353 1.0242308 7.2816541e-39
0.54501134 0.025243364 1.0221429 7.0972642e-39
0.55172646 0.026317896 1.0214288 6.452262e-39
-0.57355559 0.038204104 1.029 8.9422236e-39
-0.56481689 0.037800569 1.0285001 8.4816098e-39
-0.55495846 0.037291721 1.0268669 8.8493189e-39
-0.54480952 0.038336858 1.0274 8.5730922e-39
-0.53514868 0.038182199 1.0284001 8.3887079e-39
-0.52562642 0.038567733 1.0277144 8.5731034e-39
-0.51351035 0.03850409 1.026 8.6638529e-39
-0.5041343 0.038266838 1.027 8.4812637e-39
-0.4994719 0.039090637 1.0270001 8.2046726e-39
-0.4837462 0.035913836 1.0267059 8.7563974e-39
-0.47484118 0.036279194 1.0265911 8.850042e-39
-0.46792316 0.036561608 1.0280001 8.3886995e-39
-0.45434272 0.038190298 1.028625 8.6652948e-39
-0.44469723 0.035761341 1.0279999 8.5727362e-39
-0.43738303 0.036350388 1.028 9.2170154e-39
-0.41351599 0.03794156 1.0290003 9.8641827e-39
-0.40447211 0.035549905 1.0270001 9.218107e-39
-0.39473122 0.036772028 1.0278889 9.9538644e-39
-0.38549003 0.035291199 1.0283333 9.1251855e-39
-0.37596518 0.035538629 1.0262085 9.3099355e-39
-0.36562276 0.037804194 1.0286001 1.0965493e-38
-0.35507572 0.036444332 1.0269376 8.7567702e-39
-0.344569 0.03666532 1.0271053 9.7691214e-39
-0.33636117 0.038142227 1.0273334 1.0228303e-38
-0.32422125 0.03676803 1.0266001 1.0783268e-38
-0.31405288 0.03609902 1.0254737 1.1337151e-38
-0.30631065 0.036783993 1.0277859 1.0598885e-38
-0.29466018 0.038059298 1.0274546 1.2533904e-38
-0.28360566 0.036903195 1.0278463 1.1059134e-38
-0.27403688 0.037468303 1.0286251 1.0231895e-38
-0.251771 0.036760114 1.029 1.1889959e-38
-0.24455154 0.03543767 1.0261924 1.0783626e-38
-0.23415746 0.034397807 1.0284002 9.6776222e-39
-0.22491047 0.03527635 1.0250478 9.216993e-39
-0.21787255 0.03600464 1.0211668 1.1336334e-38
-0.20353866 0.03443091 1.0241251 1.1531097e-38
-0.19502895 0.035998046 1.0265502 1.5216353e-38
-0.18470319 0.035410572 1.0234816 1.56784e-38
-0.1746871 0.034885202 1.0231999 1.5771312e-38
-0.16508311 0.033508394 1.021625 1.650743e-38
-0.15413046 0.032159813 1.0205001 1.6139012e-38
-0.14407063 0.032646682 1.0221817 1.5955341e-38
-0.1355748 0.035454024 1.0234348 1.6139371e-38
-0.12497052 0.034911841 1.0213335 1.6600348e-38
-0.11555642 0.034867112 1.0235001 1.6692911e-38
-0.084124096 0.038824201 1.0200001 1.9268498e-38
-0.071914241 0.036397092 1.0207144 1.9453533e-38
-0.065484866 0.036521796 1.0215296 2.00993e-38
-0.055174839 0.035908155 1.0233183 2.0284073e-38
-0.044806968 0.035789937 1.0240834 2.1481557e-38
-0.034751561 0.035225768 1.0262799 2.1482274e-38
-0.025122067 0.035176918 1.02492 2.2587557e-38
-0.015996195 0.035487227 1.0263186 2.3049259e-38
-0.0043979394 0.035960741 1.0249547 2.3325853e-38
0.0045701279 0.033779055 1.0226251 2.31411e-38
0.01353941 0.03161516 1.0214001 2.3509886e-38
0.027350122 0.03396285 1.0204445 2.3141103e-38
0.034619629 0.035295255 1.0221852 2.3509886e-38
0.045192588 0.034984838 1.0254999 2.3417689e-38
0.052615546 0.036459938 1.027375 2.3509886e-38
0.067520589 0.035428315 1.0276667 2.3509886e-38
0.074495703 0.03516192 1.02452 2.3509886e-38
0.084795035 0.03526153 1.0236551 2.3509886e-38
0.095380157 0.035023667 1.0248461 2.3509886e-38
0.10484182 0.034952331 1.0231252 2.3509886e-38
0.11551037 0.033843067 1.020875 2.3509886e-38
0.14547829 0.035366375 1.0203638 1.9729506e-38
0.1548356 0.035097204 1.0226668 1.0969455e-38
0.16434485 0.035441883 1.0254349 1.161338e-38
0.1742904 0.035803899 1.0255909 1.1337879e-38
0.1849575 0.03537501 1.0283477 1.1245688e-38
0.19477835 0.035096496 1.0265863 1.1153133e-38
0.20485747 0.036511239 1.0266111 1.0599972e-38
0.21558204 0.035814665 1.0268 1.1613401e-38
0.22486845 0.035417955 1.0260714 1.0968385e-38
0.23508458 0.034977425 1.0256923 1.0324101e-38
0.24492973 0.035489012 1.0264546 1.060032e-38
0.25326782 0.035291374 1.0283334 1.0600328e-38
0.26471767 0.038166039 1.028 1.1244963e-38
0.2744233 0.035798974 1.0275557 1.0968752e-38
0.28542361 0.037409261 1.0270002 1.1796345e-38
0.29586235 0.035673574 1.0267276 1.0230832e-38
0.30478564 0.035237804 1.0246925 1.0689648e-38
0.31459433 0.035310235 1.0263336 1.0966954e-38
0.32477653 0.036001649 1.0276191 1.0414139e-38
0.33433506 0.035306763 1.0248621 9.6783789e-39
0.34457129 0.035159472 1.0244402 1.0323746e-38
0.35480002 0.035272773 1.0256925 9.3095978e-39
0.3643204 0.035612702 1.0256522 9.6765713e-39
0.37320006 0.035130154 1.027125 9.3099495e-39
0.38492364 0.035535134 1.0246451 9.2166735e-39
0.3957001 0.034803718 1.0231202 9.124129e-39
0.4056401 0.035381906 1.0257142 9.1259254e-39
0.41456652 0.035984211 1.0257273 8.5723985e-39
0.42511699 0.035249121 1.0251786 9.2173938e-39
0.43446857 0.034887243 1.0232399 8.3876359e-39
0.44461295 0.035260752 1.0250834 8.4791169e-39
0.45332727 0.036582083 1.027154 8.2039677e-39
0.46536282 0.036262088 1.0247142 7.741912e-39
0.47443715 0.034808002 1.0217003 8.0188562e-39
0.48406833 0.03338914 1.0205716 7.6507897e-39
0.4951565 0.032896977 1.0229231 7.6507995e-39
0.50370854 0.033009131 1.0232 7.0972712e-39
0.51560652 0.033816185 1.0207274 6.912873e-39
0.52555126 0.033756755 1.0206668 6.5440905e-39
0.5357976 0.034827426 1.0210003 6.9128744e-39
0.54573429 0.032976083 1.0204288 6.5444576e-39
0.55143207 0.032621641 1.0200001 6.1756737e-39
-0.58225536 0.045800995 1.0267001 8.1142748e-39
-0.57435501 0.046066828 1.0265002 8.0213505e-39
-0.56507218 0.044404645 1.0267727 8.6652948e-39
-0.55460829 0.044871338 1.0240771 8.4805378e-39
-0.54449767 0.044573892 1.0240386 8.6649291e-39
-0.53515762 0.045148514 1.0247084 8.1124755e-39
-0.52569902 0.044646654 1.024261 8.2021586e-39
-0.51524651 0.04415651 1.0214763 8.6631354e-39
-0.50492191 0.044782519 1.0220386 8.6649375e-39
-0.49510509 0.044208709 1.0244138 8.4801735e-39
-0.48435447 0.04476174 1.0229092 8.5727348e-39
-0.47475928 0.044356216 1.0232174 8.8493119e-39
-0.46439955 0.044828828 1.0232224 8.5730908e-39
-0.45454156 0.044894636 1.0246154 8.5727278e-39
-0.44493338 0.044650748 1.0257311 8.6645661e-39
-0.43527994 0.044712134 1.025625 8.8489546e-39
-0.42546815 0.045887306 1.0256191 8.664922e-39
-0.41532913 0.044808295 1.0259601 9.5857979e-39
-0.40527627 0.04487836 1.0237827 9.4935995e-39
-0.39502871 0.044631787 1.0234646 1.032265e-38
-0.38521647 0.044397369 1.0242174 9.4007018e-39
-0.37437576 0.044423465 1.0234287 8.9407957e-39
-0.36492199 0.044955187 1.026 1.0322997e-38
-0.35444844 0.044515688 1.0231307 9.4946841e-39
-0.3447811 0.044524878 1.0227779 9.4928961e-39
-0.33510157 0.045137241 1.0250772 1.0783982e-38
-0.32486936 0.04473938 1.0244001 1.0140049e-38
-0.31486923 0.043050405 1.0217648 1.0414477e-38
-0.30507699 0.044726968 1.0241724 1.0691065e-38
-0.29527768 0.044813469 1.02608 1.1244607e-38
-0.28507808 0.04470766 1.0253334 1.0691787e-38
-0.27506503 0.044871707 1.0257692 1.1152406e-38
-0.26495177 0.045407653 1.026348 1.050775e-38
-0.25616688 0.045149717 1.0268422 1.133608e-38
-0.24518389 0.044746317 1.0245001 1.1428636e-38
-0.23514239 0.045417909 1.0258801 1.0875812e-38
-0.2244712 0.044962075 1.0258751 1.0413765e-38
-0.21466911 0.044855125 1.0233333 9.6776278e-39
-0.20401609 0.045075361 1.0211002 1.0233632e-38
-0.19539234 0.044716936 1.0238752 1.2815757e-38
-0.18502897 0.044736881 1.0243002 1.3000504e-38
-0.17648725 0.044277404 1.0217274 1.3462543e-38
-0.13553071 0.044353388 1.0212175 2.0653543e-38
-0.12477218 0.044681013 1.0213077 2.1482257e-38
-0.11515535 0.043562528 1.0227895 2.1481552e-38
-0.082546443 0.0443082 1.0207143 2.3048903e-38
-0.073926613 0.043837748 1.0217059 2.30489e-38
-0.065267682 0.043845478 1.020524 2.3048905e-38
-0.055563826 0.043356676 1.022737 2.3233295e-38
-0.045408078 0.043586921 1.0221001 2.3509884e-38
-0.03357368 0.041904498 1.0227779 2.3509886e-38
-0.024242368 0.04137601 1.0224288 2.3509886e-38
-0.015059068 0.043318637 1.0228237 2.3509886e-38
-0.0061089476 0.044537544 1.0216957 2.3509886e-38
0.0023331605 0.045821957 1.0200002 2.3509886e-38
0.036287609 0.04347039 1.0210589 2.3509886e-38
0.045625638 0.043653179 1.0214 2.3325494e-38
0.055365507 0.044759508 1.0249131 2.3233299e-38
0.065090433 0.044912942 1.0247501 2.3509886e-38
0.074163623 0.044394545 1.0222175 2.3509886e-38
0.08486817 0.043625996 1.0219475 2.3509886e-38
0.095803358 0.043862257 1.0213335 2.3509886e-38
0.10292065 0.042701539 1.0214446 2.3509886e-38
0.14478564 0.044218354 1.0203638 1.0416291e-38
0.15477727 0.043913696 1.0221429 1.1246049e-38
0.16462603 0.044493906 1.0220371 1.1891054e-38
0.17543972 0.044477578 1.0220417 1.0693229e-38
0.18552163 0.044723485 1.02408 1.0785434e-38
0.19370747 0.044010259 1.0208001 1.1245677e-38
0.2059097 0.043288477 1.0214616 1.1427929e-38
0.21476072 0.044637572 1.023875 1.1242459e-38
0.22482266 0.044569138 1.0235516 1.1613034e-38
0.2346908 0.043623265 1.0218421 1.1427571e-38
0.2450714 0.044508561 1.0233333 1.0507411e-38
0.25491285 0.045229048 1.0242609 1.0691795e-38
0.26489508 0.04444655 1.0224288 1.0967306e-38
0.27480921 0.044792317 1.022042 1.0508137e-38
0.28462893 0.044403363 1.0238001 1.0415578e-38
0.29450953 0.043008838 1.0231249 9.7709375e-39
0.30144262 0.041594159 1.0224001 1.0140076e-38
0.31795222 0.043680876 1.0220001 1.0231542e-38
0.32491702 0.043991666 1.0231202 9.3085174e-39
0.33483031 0.043631613 1.0221053 1.0230112e-38
0.34480074 0.043356776 1.0227369 1.0691446e-38
0.35542285 0.04371823 1.0217369 1.0507061e-38
0.36312017 0.04252138 1.0212727 9.6783817e-39
0.37452379 0.042050179 1.0225457 8.6638711e-39
0.38374275 0.041151218 1.0225 9.2163134e-39
0.39743012 0.043595396 1.0200001 9.4932646e-39
0.40360513 0.04234862 1.0213636 9.0333739e-39
0.41827366 0.040812545 1.0220001 8.388366e-39
0.42632076 0.043766353 1.0212501 8.4801945e-39
0.43514937 0.044275399 1.0220954 8.0199352e-39
0.44496009 0.044715978 1.0221922 7.5575151e-39
0.45507684 0.044024449 1.0233045 7.9263046e-39
0.46393579 0.04284304 1.0215716 7.6504366e-39
0.47454232 0.042895626 1.0200003 7.1883809e-39
0.48039097 0.042641159 1.0200002 7.0979705e-39
0.51265633 0.044342652 1.0201112 6.9132359e-39
0.52425528 0.040732678 1.0200002 8.571674e-39
0.5361914 0.042018309 1.0203334 6.6377224e-39
-0.58142859 0.051093832 1.0236667 8.4819769e-39
-0.57545292 0.054173008 1.0228279 8.2061117e-39
-0.56554598 0.054551337 1.0218097 8.3897785e-39
-0.55573028 0.051469453 1.0210001 8.3887009e-39
-0.54365188 0.051558353 1.0202223 8.2057474e-39
-0.5355866 0.053143959 1.0201253 8.1139161e-39
-0.52462661 0.052907422 1.0210003 8.8482469e-39
-0.51606822 0.051173404 1.021 8.6652892e-39
-0.50399655 0.052100662 1.0208668 9.0340703e-39
-0.4934496 0.052590456 1.0205001 8.2046726e-39
-0.48664072 0.053859033 1.0211538 8.6642158e-39
-0.47853556 0.051291861 1.0212501 7.5596437e-39
-0.46395853 0.052619237 1.0202223 8.6649319e-39
-0.4559935 0.053563058 1.0215002 8.5720118e-39
-0.44498134 0.052720983 1.0217061 8.9411544e-39
-0.43478584 0.054248415 1.0214583 8.3901428e-39
-0.42487103 0.054011948 1.0215418 8.0202785e-39
-0.41650429 0.054146655 1.0210556 9.123752e-39
-0.3934668 0.052082948 1.0214546 1.0046057e-38
-0.3870689 0.051316973 1.02175 9.9552993e-39
-0.37377852 0.051135506 1.0208572 8.9415131e-39
-0.36565706 0.052581128 1.022077 9.1233681e-39
-0.35580623 0.053144846 1.020143 1.0046416e-38
-0.34615225 0.051246058 1.0203334 9.7694815e-39
-0.33329844 0.052228291 1.0209001 1.0783981e-38
-0.32408085 0.052890789 1.0214167 1.013826e-38
-0.31584013 0.053412508 1.0202729 1.0229735e-38
-0.30360946 0.051670719 1.0212002 1.0966213e-38
-0.29465237 0.052651376 1.0205386 1.1150251e-38
-0.28488478 0.053954124 1.0208572 1.096729e-38
-0.2749207 0.052128755 1.0220834 1.1243175e-38
-0.26473737 0.054414116 1.0222858 1.1153122e-38
-0.25463694 0.053974774 1.0241305 1.1153133e-38
-0.24658269 0.053161863 1.0231431 1.1153132e-38
-0.23362628 0.052681264 1.02275 1.0785783e-38
