# .PCD v0.7 - Point Cloud Data file format
VERSION 0.7
FIELDS x y z rgb
SIZE 4 4 4 4
TYPE F F F F
COUNT 1 1 1 1
WIDTH 148
HEIGHT 1
VIEWPOINT 0 0 0 1 0 0 0
POINTS 148
DATA ascii
0.32619154 -0.15256156 1.0674547 2.2402466e-38
0.33479366 -0.15287222 1.067091 2.1388676e-38
0.31803486 -0.14308004 1.0671667 2.2033326e-38
0.32492697 -0.14445177 1.0636073 2.2587216e-38
0.33479148 -0.14465944 1.0640953 2.101917e-38
0.34131309 -0.14521471 1.0682 1.8898678e-38
0.31856745 -0.13512211 1.0651431 2.2125518e-38
0.32545596 -0.13444792 1.0620801 2.2586497e-38
0.33459228 -0.13539971 1.0646877 1.843805e-38
0.35896897 -0.13410515 1.06725 2.1756016e-38
0.36534405 -0.13467489 1.0678 2.1571987e-38
0.37588832 -0.13412935 1.0674446 2.148015e-38
0.38207456 -0.13542034 1.068 2.1664904e-38
0.31864899 -0.12472569 1.0653336 2.1572347e-38
0.32489824 -0.12467741 1.0634998 2.0835138e-38
0.33261248 -0.12529457 1.0659168 1.8532042e-38
0.35485712 -0.12537491 1.0675557 2.0742227e-38
0.36459893 -0.12766472 1.0676668 1.982063e-38
0.3741903 -0.12858038 1.0675715 1.8990873e-38
0.3823649 -0.12926392 1.0685 1.9174185e-38
0.32344133 -0.11890502 1.06525 2.0282325e-38
0.42891413 -0.11579683 1.06875 1.9912828e-38
0.4321793 -0.11465657 1.069 2.1110651e-38
0.32862425 -0.17091161 1.079 2.2494307e-38
0.33467662 -0.17091161 1.079 2.2401391e-38
0.31966317 -0.16037013 1.0760001 2.1572705e-38
0.32481319 -0.16484478 1.0762801 2.2218432e-38
0.33478457 -0.16527249 1.0770589 2.2126238e-38
0.34302491 -0.16160242 1.0775001 2.0927342e-38
0.31892747 -0.15410343 1.0764288 2.1111729e-38
0.32379812 -0.15594561 1.0732667 2.1757097e-38
0.33459789 -0.15739852 1.0717502 2.166562e-38
0.3450903 -0.15538202 1.0746924 1.9636601e-38
0.38702425 -0.15461627 1.0780001 1.9452936e-38
0.3935678 -0.15363553 1.0775454 1.6688157e-38
0.31606743 -0.14427355 1.0761001 2.1572347e-38
0.32103106 -0.1485336 1.0705001 2.2033326e-38
0.34537315 -0.14767009 1.0715001 1.8530615e-38
0.3504912 -0.1485662 1.0780001 1.9729156e-38
0.36731404 -0.1434602 1.0756251 2.1848573e-38
0.37436292 -0.14402667 1.0742143 2.1480871e-38
0.38349953 -0.14478707 1.0751874 2.1112087e-38
0.39444292 -0.14334242 1.0777144 2.0742953e-38
0.40125284 -0.14062853 1.079 2.0373446e-38
0.3087388 -0.13317019 1.0770001 2.1848931e-38
0.31449288 -0.13465358 1.0749586 2.1756735e-38
0.34613863 -0.13029222 1.077 2.2402821e-38
0.35533491 -0.13431969 1.0722353 2.1203566e-38
0.36451173 -0.13789517 1.0708334 2.2585776e-38
0.3740119 -0.13817447 1.071143 2.2586856e-38
0.38768327 -0.1351715 1.0730834 2.1295404e-38
0.39309549 -0.13433479 1.0771002 2.0834424e-38
0.40524104 -0.13379972 1.0788751 2.0005745e-38
0.41095892 -0.13343871 1.0780001 1.8900847e-38
0.31596035 -0.12610087 1.0756429 2.1295758e-38
0.33813694 -0.12195933 1.0746001 2.1664902e-38
0.34556633 -0.12519632 1.0730499 2.1295405e-38
0.3544732 -0.12543872 1.07085 2.0742587e-38
0.36533469 -0.12263323 1.0755 2.0189051e-38
0.37388337 -0.12482332 1.0747501 1.9175256e-38
0.38428178 -0.12540339 1.0770715 2.0096496e-38
0.3922084 -0.1240434 1.0781667 2.0741864e-38
0.40932268 -0.1285153 1.079 2.0467805e-38
0.41215032 -0.12330692 1.0788572 2.1020613e-38
0.42439678 -0.12235282 1.0766923 2.1018455e-38
0.43486583 -0.12415153 1.076154 2.1111371e-38
0.4421193 -0.12213745 1.0761669 1.5853705e-38
0.3184748 -0.11965847 1.072 1.8715361e-38
0.32454962 -0.1173497 1.0763077 1.982099e-38
0.33481306 -0.11857177 1.0749002 2.0005018e-38
0.346668 -0.11857364 1.0749 1.917526e-38
0.3550697 -0.11767533 1.0748572 1.9544764e-38
0.36325729 -0.11735664 1.0785 2.111029e-38
0.42560589 -0.11554028 1.0749166 2.0097218e-38
0.4352954 -0.11567996 1.0713158 1.8712479e-38
0.44339201 -0.1180917 1.0760001 9.215212e-39
0.3429395 -0.18014827 1.0860001 2.2863803e-38
0.3086625 -0.17210664 1.084 2.2586499e-38
0.31600368 -0.17297165 1.0824168 2.2401743e-38
0.32480541 -0.17358647 1.0830834 2.2495022e-38
0.33465597 -0.17464314 1.0846001 2.2863081e-38
0.34466511 -0.1750887 1.0825652 2.0743675e-38
0.35288569 -0.17283656 1.0812224 1.8347303e-38
0.30987898 -0.16967538 1.0840001 2.3415535e-38
0.31594187 -0.16594973 1.0839586 2.2033322e-38
0.3208515 -0.16298704 1.08 2.1573064e-38
0.33933938 -0.16920578 1.0810001 2.1756745e-38
0.34554198 -0.16630916 1.08025 2.1203927e-38
0.35313007 -0.16587645 1.0830001 2.1573068e-38
0.31669828 -0.15577775 1.0830716 2.1665618e-38
0.35280791 -0.15626825 1.0816667 1.8623168e-38
0.37686604 -0.15216261 1.085143 2.0189418e-38
0.38518536 -0.15446551 1.083125 2.0466724e-38
0.39366826 -0.15158334 1.0803335 2.0189782e-38
0.30930725 -0.14101954 1.082 2.1941487e-38
0.31412774 -0.14620912 1.0829375 2.1572345e-38
0.34774557 -0.14506851 1.082 1.8530625e-38
0.35482165 -0.1430459 1.082 2.0834786e-38
0.36539638 -0.14545092 1.084875 2.1018816e-38
0.37537345 -0.14884184 1.08 2.0373446e-38
0.38918376 -0.14739473 1.0805001 2.0743664e-38
0.39586362 -0.14574344 1.0812309 2.0558558e-38
0.40434161 -0.14434285 1.0835385 1.9728094e-38
0.41235751 -0.1416712 1.087 1.8528106e-38
0.30745766 -0.13510533 1.0832728 2.1849648e-38
0.34680149 -0.1325331 1.0843334 2.0744024e-38
0.35462826 -0.13694838 1.0845001 2.129684e-38
0.39863402 -0.13423859 1.0812001 2.0097578e-38
0.40524846 -0.13497871 1.0812501 2.0005384e-38
0.41451484 -0.13516676 1.0837779 1.9452933e-38
0.30821869 -0.12666741 1.082625 2.1572342e-38
0.31359339 -0.12353604 1.0810834 2.0097575e-38
0.3423712 -0.12723796 1.0810001 2.1757455e-38
0.38605201 -0.12290917 1.0810001 2.1018454e-38
0.39562565 -0.12468695 1.0820001 2.0281249e-38
0.40509629 -0.12464521 1.081655 2.1111369e-38
0.41714063 -0.12450498 1.0817144 2.0927339e-38
0.43359938 -0.1283959 1.0836667 1.9727359e-38
0.33595356 -0.18130946 1.0930001 2.2771963e-38
0.34161365 -0.18106064 1.0915 2.2771247e-38
0.30977511 -0.17186676 1.098 2.3416614e-38
0.32993644 -0.17877235 1.09 2.2494303e-38
0.33503151 -0.17877235 1.09 2.2955634e-38
0.34075063 -0.17910038 1.092 2.3048552e-38
0.36149904 -0.17108414 1.0930001 2.0190139e-38
0.30853993 -0.16581364 1.0962728 2.2125876e-38
0.31242442 -0.16363262 1.0929092 2.1757092e-38
0.35761425 -0.16661108 1.0905001 2.1480871e-38
0.3657015 -0.16554107 1.0969414 2.0466717e-38
0.37436941 -0.16433267 1.0986429 2.2309915e-38
0.38541776 -0.1624894 1.0971001 2.1480514e-38
0.30949301 -0.15528983 1.097 2.2126598e-38
0.31353754 -0.15556855 1.0947059 2.2034402e-38
0.35783646 -0.15455486 1.0918001 1.9729159e-38
0.36452234 -0.15509214 1.0978463 2.2034404e-38
0.37438372 -0.15602896 1.0962354 2.1849294e-38
0.38261598 -0.15797825 1.0932859 2.0467441e-38
0.40330544 -0.15225945 1.09 1.5951682e-38
0.31142992 -0.14756587 1.0930001 2.1848575e-38
0.40812895 -0.14845245 1.092 1.6318692e-38
0.29858863 -0.17104959 1.1060001 2.3140747e-38
0.30472106 -0.17275898 1.1060909 2.313967e-38
0.31043208 -0.17590439 1.1040001 2.2863081e-38
0.36587095 -0.1721798 1.1 1.9544769e-38
0.37373412 -0.17089492 1.105 2.0557477e-38
0.36689931 -0.16394715 1.1 2.1480866e-38
0.37924281 -0.16542618 1.103 2.2863447e-38
0.38385123 -0.16740769 1.1038001 1.9452942e-38
