# .PCD v0.7 - Point Cloud Data file format
VERSION 0.7
FIELDS x y z rgb
SIZE 4 4 4 4
TYPE F F F F
COUNT 1 1 1 1
WIDTH 134
HEIGHT 1
VIEWPOINT 0 0 0 1 0 0 0
POINTS 134
DATA ascii
0.057544485 -0.39380261 1.2181251 1.3924557e-38
0.064479396 -0.39471182 1.2190001 1.3740527e-38
0.071544997 -0.3926591 1.2190001 1.4845064e-38
0.056668758 -0.38539541 1.2176666 1.5028735e-38
0.064684153 -0.38567895 1.2185625 1.5122006e-38
0.070405386 -0.38391596 1.2190001 1.5030529e-38
0.1445165 -0.42002532 1.2290001 1.5857783e-38
0.16060196 -0.42002532 1.2290001 1.5675917e-38
0.10991333 -0.41147369 1.2275001 1.392351e-38
0.11530004 -0.41214123 1.2290001 1.3094117e-38
0.12551968 -0.41300043 1.2286251 1.2264708e-38
0.13625091 -0.41497013 1.2249334 1.4476655e-38
0.14527789 -0.41431478 1.2257143 1.5303903e-38
0.15497896 -0.41354662 1.2262355 1.5397515e-38
0.16534679 -0.41349816 1.227 1.2449508e-38
0.052484192 -0.40075764 1.2263335 1.3922763e-38
0.066333093 -0.40283406 1.228 1.447844e-38
0.072073221 -0.40130228 1.228 1.512237e-38
0.10761821 -0.40687931 1.2275001 1.0794618e-38
0.11502069 -0.40525571 1.2281501 1.1159837e-38
0.12170017 -0.40661064 1.2260001 9.5003243e-39
0.13565125 -0.40559664 1.2246472 1.198812e-38
0.14500065 -0.4043704 1.2233891 1.2632404e-38
0.15479109 -0.40658072 1.2254444 1.2265421e-38
0.16269949 -0.4076376 1.2255555 9.8680377e-39
0.052359682 -0.39503002 1.2234547 1.4845425e-38
0.12709059 -0.39428475 1.2255715 1.2265424e-38
0.13040984 -0.39605901 1.2260002 1.0329701e-38
0.13758421 -0.44198886 1.2390001 1.327597e-38
0.14526707 -0.44264266 1.2386668 1.4753246e-38
0.086950913 -0.43257788 1.2367144 1.5122723e-38
0.09391433 -0.4320333 1.2344002 1.3738738e-38
0.12947604 -0.43039766 1.2390001 1.502946e-38
0.13583699 -0.43439278 1.2371669 1.3738741e-38
0.14455833 -0.43504041 1.2362943 1.4291543e-38
0.15380055 -0.43155676 1.2390001 1.4475571e-38
0.16580354 -0.43152279 1.2384287 1.530427e-38
0.17117521 -0.43155676 1.2390001 1.3368172e-38
0.055264331 -0.4216705 1.2372001 1.4569558e-38
0.06449613 -0.42093807 1.2367501 1.2818949e-38
0.071560517 -0.4211247 1.2390001 1.3188804e-38
0.086085252 -0.42456838 1.2343531 1.3370687e-38
0.095721975 -0.42444429 1.2344739 1.0238227e-38
0.1026689 -0.42160124 1.237 1.3373216e-38
0.11474316 -0.42244297 1.2383335 1.4753946e-38
0.1256891 -0.42497608 1.2378335 1.5397878e-38
0.13455416 -0.42522493 1.2333078 1.4108599e-38
0.14533342 -0.42528221 1.2324706 1.4844353e-38
0.15512519 -0.42386028 1.2348002 1.5674454e-38
0.16527209 -0.42415327 1.2360001 1.3923862e-38
0.054920703 -0.41519201 1.2359999 1.5213487e-38
0.065872513 -0.41509882 1.2359232 1.46614e-38
0.085605592 -0.41430756 1.2348096 9.6854205e-39
0.095256746 -0.4150483 1.2364374 1.3185222e-38
0.10445152 -0.41436642 1.234643 1.4200438e-38
0.11561143 -0.41810539 1.233889 1.4016751e-38
0.12566604 -0.41644531 1.232875 1.3371033e-38
0.13083532 -0.41461357 1.23 1.3462511e-38
0.16546664 -0.41840556 1.2310001 1.3003341e-38
0.05530221 -0.40662947 1.2307143 1.4384093e-38
0.06503085 -0.40758604 1.2323335 1.503017e-38
0.1258651 -0.40461674 1.2304544 1.0422621e-38
0.13316604 -0.4036926 1.2302856 1.125057e-38
0.1482864 -0.46420702 1.2478335 1.318521e-38
0.1548931 -0.46427241 1.2478001 1.3923489e-38
0.16165861 -0.46197101 1.2460001 1.3832363e-38
0.13847256 -0.45184234 1.2470001 1.3738379e-38
0.14626606 -0.45504609 1.2469231 1.4199706e-38
0.15549365 -0.45494786 1.2472857 1.4384814e-38
0.16210942 -0.45461467 1.2450001 1.4200425e-38
0.087565809 -0.44328851 1.2470001 1.5213841e-38
0.094718635 -0.44379264 1.2465 1.5581912e-38
0.10316446 -0.44405383 1.2490003 1.3001541e-38
0.13544625 -0.44549313 1.2449001 1.3553629e-38
0.14447702 -0.44807273 1.2451668 1.4476653e-38
0.15600236 -0.44547799 1.2448668 1.4384099e-38
0.16544172 -0.4440155 1.2420001 1.4568841e-38
0.17307691 -0.44350442 1.2443335 1.346146e-38
0.083918683 -0.43630335 1.2448335 1.4754305e-38
0.095842645 -0.43658024 1.2405715 1.336996e-38
0.10432307 -0.43612769 1.2468573 1.0330063e-38
0.13179289 -0.43797451 1.2434001 1.3739095e-38
0.15564087 -0.43673944 1.2444546 1.4292258e-38
0.16416052 -0.43679774 1.2429168 1.4753235e-38
0.17425691 -0.43564978 1.2444445 1.0695283e-38
0.05312866 -0.42656299 1.2413335 1.4385895e-38
0.065848671 -0.42580774 1.2428889 1.217287e-38
0.081554338 -0.42478958 1.24125 1.4200782e-38
0.15856168 -0.42842492 1.24 1.5765213e-38
0.16667637 -0.42668486 1.24 1.3277419e-38
0.11960566 -0.48368883 1.2570002 1.4936903e-38
0.12434011 -0.4826405 1.2573334 1.4291907e-38
0.14439835 -0.48289672 1.258 1.5212058e-38
0.11527255 -0.47355625 1.25625 1.2541649e-38
0.12537102 -0.47503299 1.255875 1.2726395e-38
0.13490359 -0.47502142 1.2564667 1.3277404e-38
0.1444508 -0.47481346 1.2554708 1.3646188e-38
0.15455425 -0.47499204 1.2560002 1.4844004e-38
0.1171017 -0.46691319 1.255375 1.2172151e-38
0.12552431 -0.46556672 1.2550668 1.2358331e-38
0.13446496 -0.4649848 1.255059 1.2909344e-38
0.14280954 -0.46503028 1.2526667 1.3001897e-38
0.15433621 -0.46447623 1.2527502 1.4199719e-38
0.16625042 -0.46502912 1.25425 1.3924568e-38
0.17218602 -0.46276745 1.2576668 1.3647634e-38
0.094755344 -0.45344934 1.257 1.5306396e-38
0.10365898 -0.45339981 1.2550001 1.5582627e-38
0.12632962 -0.45523208 1.2554288 1.4108228e-38
0.13410683 -0.45502868 1.2523078 1.4291902e-38
0.1412558 -0.45680276 1.251 1.3923122e-38
0.15420276 -0.4550975 1.2516668 1.4569205e-38
0.16719283 -0.45602772 1.2508 1.4291906e-38
0.17363337 -0.45522204 1.254889 1.4198271e-38
0.094310425 -0.44890404 1.2540001 1.5489707e-38
0.13062553 -0.44591293 1.25 1.4384452e-38
0.15399742 -0.44591293 1.25 1.4567764e-38
0.17751119 -0.44451413 1.251 1.1616872e-38
0.11493874 -0.48111627 1.2626002 1.4385182e-38
0.1272281 -0.48705059 1.2626667 1.4476649e-38
0.13502574 -0.48502252 1.2620001 1.4476648e-38
0.1439483 -0.48493275 1.2643335 1.5119869e-38
0.15460631 -0.48361617 1.2645001 1.5120239e-38
0.095269017 -0.4740862 1.2678 1.2816794e-38
0.10548196 -0.47390819 1.2676156 1.2172508e-38
0.11081826 -0.4769223 1.2640001 1.2450167e-38
0.15796049 -0.47890812 1.263 1.5396103e-38
0.16351733 -0.47509286 1.2633333 1.4568137e-38
0.12703006 -0.49441499 1.2725 1.5120931e-38
0.13075148 -0.49499777 1.274 1.5029096e-38
0.14049995 -0.49338743 1.276 1.4568856e-38
0.15720056 -0.49099997 1.276 1.4936925e-38
0.11550651 -0.48720407 1.2723335 1.4569209e-38
0.14945522 -0.48907596 1.271 1.5304242e-38
0.15516703 -0.48879385 1.2723334 1.5028394e-38
