# .PCD v0.7 - Point Cloud Data file format
VERSION 0.7
FIELDS x y z rgb
SIZE 4 4 4 4
TYPE F F F F
COUNT 1 1 1 1
WIDTH 547
HEIGHT 1
VIEWPOINT 0 0 0 1 0 0 0
POINTS 547
DATA ascii
-0.021546349 0.364034 0.87900007 9.2170196e-39
-0.029213358 0.36238801 0.88220006 9.2195392e-39
0.44472009 -0.081528023 1.046 8.2950829e-39
0.43962044 -0.072686657 1.0455 1.889724e-38
0.44353864 -0.076758802 1.0468823 1.1796011e-38
-0.11691707 -0.066059932 1.049 1.6692178e-38
0.43864164 -0.063883334 1.0455 1.6221756e-38
0.44092545 -0.066666663 1.0452858 1.235024e-38
-0.11190686 -0.058153484 1.0480001 1.7243908e-38
0.43898973 -0.05988491 1.044 9.8580969e-39
0.44094172 -0.05988491 1.044 9.0279691e-39
-0.15400283 -0.081220321 1.059 1.7059878e-38
0.44508275 -0.084728189 1.0577692 1.714625e-38
0.43996802 -0.071102083 1.051 1.9358941e-38
0.44357267 -0.073107682 1.0535715 1.4287816e-38
0.32619154 -0.15256156 1.0674547 2.2402466e-38
0.33479366 -0.15287222 1.067091 2.1388676e-38
0.31803486 -0.14308004 1.0671667 2.2033326e-38
0.32492697 -0.14445177 1.0636073 2.2587216e-38
0.33479148 -0.14465944 1.0640953 2.101917e-38
0.34131309 -0.14521471 1.0682 1.8898678e-38
0.31856745 -0.13512211 1.0651431 2.2125518e-38
0.32545596 -0.13444792 1.0620801 2.2586497e-38
0.33459228 -0.13539971 1.0646877 1.843805e-38
0.35896897 -0.13410515 1.06725 2.1756016e-38
0.36534405 -0.13467489 1.0678 2.1571987e-38
0.37588832 -0.13412935 1.0674446 2.148015e-38
0.38207456 -0.13542034 1.068 2.1664904e-38
0.31864899 -0.12472569 1.0653336 2.1572347e-38
0.32489824 -0.12467741 1.0634998 2.0835138e-38
0.33261248 -0.12529457 1.0659168 1.8532042e-38
0.35485712 -0.12537491 1.0675557 2.0742227e-38
0.36459893 -0.12766472 1.0676668 1.982063e-38
0.3741903 -0.12858038 1.0675715 1.8990873e-38
0.3823649 -0.12926392 1.0685 1.9174185e-38
-0.040195037 -0.11132296 1.069 1.6509583e-38
0.32344133 -0.11890502 1.06525 2.0282325e-38
0.42891413 -0.11579683 1.06875 1.9912828e-38
0.4321793 -0.11465657 1.069 2.1110651e-38
-0.050188851 -0.10132216 1.069 1.6416312e-38
-0.04266905 -0.10463773 1.0683751 1.6691819e-38
-0.037044182 -0.10443819 1.0687145 1.6784372e-38
-0.024204932 -0.10132216 1.069 1.6230848e-38
-0.043660395 -0.09478879 1.0670909 1.6968402e-38
0.32862425 -0.17091161 1.079 2.2494307e-38
0.33467662 -0.17091161 1.079 2.2401391e-38
0.31966317 -0.16037013 1.0760001 2.1572705e-38
0.32481319 -0.16484478 1.0762801 2.2218432e-38
0.33478457 -0.16527249 1.0770589 2.2126238e-38
0.34302491 -0.16160242 1.0775001 2.0927342e-38
0.31892747 -0.15410343 1.0764288 2.1111729e-38
0.32379812 -0.15594561 1.0732667 2.1757097e-38
0.33459789 -0.15739852 1.0717502 2.166562e-38
0.3450903 -0.15538202 1.0746924 1.9636601e-38
0.38702425 -0.15461627 1.0780001 1.9452936e-38
0.3935678 -0.15363553 1.0775454 1.6688157e-38
0.31606743 -0.14427355 1.0761001 2.1572347e-38
0.32103106 -0.1485336 1.0705001 2.2033326e-38
0.34537315 -0.14767009 1.0715001 1.8530615e-38
0.3504912 -0.1485662 1.0780001 1.9729156e-38
0.36731404 -0.1434602 1.0756251 2.1848573e-38
0.37436292 -0.14402667 1.0742143 2.1480871e-38
0.38349953 -0.14478707 1.0751874 2.1112087e-38
0.39444292 -0.14334242 1.0777144 2.0742953e-38
0.40125284 -0.14062853 1.079 2.0373446e-38
0.3087388 -0.13317019 1.0770001 2.1848931e-38
0.31449288 -0.13465358 1.0749586 2.1756735e-38
0.34613863 -0.13029222 1.077 2.2402821e-38
0.35533491 -0.13431969 1.0722353 2.1203566e-38
0.36451173 -0.13789517 1.0708334 2.2585776e-38
0.3740119 -0.13817447 1.071143 2.2586856e-38
0.38768327 -0.1351715 1.0730834 2.1295404e-38
0.39309549 -0.13433479 1.0771002 2.0834424e-38
0.40524104 -0.13379972 1.0788751 2.0005745e-38
0.41095892 -0.13343871 1.0780001 1.8900847e-38
-0.13249667 -0.12159815 1.0773335 1.6413801e-38
-0.12557164 -0.12272929 1.0784168 1.6321607e-38
-0.032501198 -0.12094454 1.079 1.4295486e-38
-0.024098398 -0.12079234 1.0770001 1.5861353e-38
0.31596035 -0.12610087 1.0756429 2.1295758e-38
0.33813694 -0.12195933 1.0746001 2.1664902e-38
0.34556633 -0.12519632 1.0730499 2.1295405e-38
0.3544732 -0.12543872 1.07085 2.0742587e-38
0.36533469 -0.12263323 1.0755 2.0189051e-38
0.37388337 -0.12482332 1.0747501 1.9175256e-38
0.38428178 -0.12540339 1.0770715 2.0096496e-38
0.3922084 -0.1240434 1.0781667 2.0741864e-38
0.40932268 -0.1285153 1.079 2.0467805e-38
0.41215032 -0.12330692 1.0788572 2.1020613e-38
0.42439678 -0.12235282 1.0766923 2.1018455e-38
0.43486583 -0.12415153 1.076154 2.1111371e-38
0.4421193 -0.12213745 1.0761669 1.5853705e-38
-0.13506612 -0.11453145 1.0770869 1.650743e-38
-0.12598994 -0.11445048 1.0770456 1.6691101e-38
-0.04482444 -0.11508734 1.0761113 1.6140088e-38
-0.034046926 -0.11460827 1.074778 1.6783296e-38
-0.024307219 -0.11481824 1.0736002 1.5308188e-38
0.3184748 -0.11965847 1.072 1.8715361e-38
0.32454962 -0.1173497 1.0763077 1.982099e-38
0.33481306 -0.11857177 1.0749002 2.0005018e-38
0.346668 -0.11857364 1.0749 1.917526e-38
0.3550697 -0.11767533 1.0748572 1.9544764e-38
0.36325729 -0.11735664 1.0785 2.111029e-38
0.40516317 -0.11636549 1.0786667 2.1295765e-38
0.41532061 -0.11696323 1.0788572 2.0558553e-38
0.42560589 -0.11554028 1.0749166 2.0097218e-38
0.4352954 -0.11567996 1.0713158 1.8712479e-38
0.44339201 -0.1180917 1.0760001 9.215212e-39
-0.04700974 -0.10677699 1.0724446 1.6415595e-38
-0.033156723 -0.10588006 1.071278 1.6323042e-38
-0.024246862 -0.106049 1.0708181 1.5676965e-38
0.3429395 -0.18014827 1.0860001 2.2863803e-38
0.3086625 -0.17210664 1.084 2.2586499e-38
0.31600368 -0.17297165 1.0824168 2.2401743e-38
0.32480541 -0.17358647 1.0830834 2.2495022e-38
0.33465597 -0.17464314 1.0846001 2.2863081e-38
0.34466511 -0.1750887 1.0825652 2.0743675e-38
0.35288569 -0.17283656 1.0812224 1.8347303e-38
0.30987898 -0.16967538 1.0840001 2.3415535e-38
0.31594187 -0.16594973 1.0839586 2.2033322e-38
0.3208515 -0.16298704 1.08 2.1573064e-38
0.33933938 -0.16920578 1.0810001 2.1756745e-38
0.34554198 -0.16630916 1.08025 2.1203927e-38
0.35313007 -0.16587645 1.0830001 2.1573068e-38
0.31669828 -0.15577775 1.0830716 2.1665618e-38
0.35280791 -0.15626825 1.0816667 1.8623168e-38
0.37686604 -0.15216261 1.085143 2.0189418e-38
0.38518536 -0.15446551 1.083125 2.0466724e-38
0.39366826 -0.15158334 1.0803335 2.0189782e-38
0.30930725 -0.14101954 1.082 2.1941487e-38
0.31412774 -0.14620912 1.0829375 2.1572345e-38
0.34774557 -0.14506851 1.082 1.8530625e-38
0.35482165 -0.1430459 1.082 2.0834786e-38
0.36539638 -0.14545092 1.084875 2.1018816e-38
0.37537345 -0.14884184 1.08 2.0373446e-38
0.38918376 -0.14739473 1.0805001 2.0743664e-38
0.39586362 -0.14574344 1.0812309 2.0558558e-38
0.40434161 -0.14434285 1.0835385 1.9728094e-38
0.41235751 -0.1416712 1.087 1.8528106e-38
-0.16243267 -0.13423556 1.0844167 1.6690753e-38
-0.15520318 -0.13355538 1.0849334 1.2270442e-38
0.30745766 -0.13510533 1.0832728 2.1849648e-38
0.34680149 -0.1325331 1.0843334 2.0744024e-38
0.35462826 -0.13694838 1.0845001 2.129684e-38
0.39863402 -0.13423859 1.0812001 2.0097578e-38
0.40524846 -0.13497871 1.0812501 2.0005384e-38
0.41451484 -0.13516676 1.0837779 1.9452933e-38
0.43634474 -0.13138102 1.0860001 1.8714289e-38
-0.12429629 -0.12679684 1.0827857 1.4663905e-38
-0.024611354 -0.1261694 1.0819446 1.5307829e-38
0.30821869 -0.12666741 1.082625 2.1572342e-38
0.31359339 -0.12353604 1.0810834 2.0097575e-38
0.3423712 -0.12723796 1.0810001 2.1757455e-38
0.37695831 -0.12204868 1.0813334 2.1479429e-38
0.38605201 -0.12290917 1.0810001 2.1018454e-38
0.39562565 -0.12468695 1.0820001 2.0281249e-38
0.40509629 -0.12464521 1.081655 2.1111369e-38
0.41714063 -0.12450498 1.0817144 2.0927339e-38
0.42407706 -0.12703371 1.0835714 1.9635887e-38
0.43359938 -0.1283959 1.0836667 1.9727359e-38
0.44532561 -0.12677987 1.0838572 1.4748075e-38
0.33595356 -0.18130946 1.0930001 2.2771963e-38
0.34161365 -0.18106064 1.0915 2.2771247e-38
0.30977511 -0.17186676 1.098 2.3416614e-38
0.32993644 -0.17877235 1.09 2.2494303e-38
0.33503151 -0.17877235 1.09 2.2955634e-38
0.34075063 -0.17910038 1.092 2.3048552e-38
0.36149904 -0.17108414 1.0930001 2.0190139e-38
-0.1718064 -0.16585441 1.0990001 1.3835591e-38
-0.16666925 -0.16482626 1.0990001 9.8715984e-39
0.30853993 -0.16581364 1.0962728 2.2125876e-38
0.31242442 -0.16363262 1.0929092 2.1757092e-38
0.35761425 -0.16661108 1.0905001 2.1480871e-38
0.3657015 -0.16554107 1.0969414 2.0466717e-38
0.37436941 -0.16433267 1.0986429 2.2309915e-38
0.38541776 -0.1624894 1.0971001 2.1480514e-38
-0.16441323 -0.15378922 1.0976667 1.1806601e-38
-0.022490118 -0.1554112 1.0978462 1.5769877e-38
0.30949301 -0.15528983 1.097 2.2126598e-38
0.31353754 -0.15556855 1.0947059 2.2034402e-38
0.35783646 -0.15455486 1.0918001 1.9729159e-38
0.36452234 -0.15509214 1.0978463 2.2034404e-38
0.37438372 -0.15602896 1.0962354 2.1849294e-38
0.38261598 -0.15797825 1.0932859 2.0467441e-38
0.40330544 -0.15225945 1.09 1.5951682e-38
0.31142992 -0.14756587 1.0930001 2.1848575e-38
0.40812895 -0.14845245 1.092 1.6318692e-38
0.41287544 -0.14613122 1.09375 1.4843541e-38
-0.063314214 -0.193857 1.10625 1.5217429e-38
-0.05812981 -0.19174349 1.1060001 1.2083542e-38
-0.07069692 -0.18284312 1.1085 1.5123441e-38
-0.064186305 -0.18510751 1.10344 1.57688e-38
-0.057828333 -0.18498251 1.1068333 1.3094809e-38
-0.1752831 -0.17433754 1.1040667 1.4112537e-38
-0.072172463 -0.17391884 1.105091 1.5861356e-38
-0.064121157 -0.17461357 1.10236 1.567553e-38
-0.057038214 -0.17501564 1.1049001 1.3924557e-38
0.29858863 -0.17104959 1.1060001 2.3140747e-38
0.30472106 -0.17275898 1.1060909 2.313967e-38
0.31043208 -0.17590439 1.1040001 2.2863081e-38
0.36587095 -0.1721798 1.1 1.9544769e-38
0.37373412 -0.17089492 1.105 2.0557477e-38
-0.17522024 -0.16469646 1.1025884 1.5309267e-38
-0.16868122 -0.1645727 1.1014 1.1070482e-38
-0.064020112 -0.16462846 1.1021739 1.5307112e-38
0.36689931 -0.16394715 1.1 2.1480866e-38
0.37924281 -0.16542618 1.103 2.2863447e-38
0.38385123 -0.16740769 1.1038001 1.9452942e-38
-0.068075299 -0.20191997 1.1165001 1.3926351e-38
-0.056670133 -0.20009941 1.118 9.9584116e-39
-0.11239645 -0.19309835 1.1178334 1.6413443e-38
-0.094088733 -0.19322839 1.1175835 1.6044666e-38
-0.07111147 -0.19330566 1.1150001 1.4018545e-38
-0.0662608 -0.19753429 1.112375 1.4849015e-38
-0.057365425 -0.1955357 1.114143 1.0606641e-38
-0.071813017 -0.21312059 1.126 1.2268648e-38
-0.066444986 -0.21447472 1.1267858 1.4662472e-38
0.26996925 -0.21474274 1.1290001 2.2125879e-38
0.32472777 -0.21484412 1.1289473 2.2955997e-38
-0.071634442 -0.20523551 1.1232002 1.309732e-38
-0.064995803 -0.2066811 1.1234444 1.4569922e-38
0.32497436 -0.20510684 1.12388 2.2955996e-38
-0.10425323 -0.19804204 1.1201667 1.6507072e-38
-0.22219534 -0.23095284 1.136 1.2449449e-38
-0.21560383 -0.23180118 1.1362501 1.456992e-38
-0.06396278 -0.23205011 1.1361668 1.4016751e-38
-0.059811685 -0.23242408 1.138 1.3004408e-38
-0.21505617 -0.22436084 1.1332693 1.3556147e-38
-0.064898789 -0.22523184 1.1339376 1.4937976e-38
-0.063616857 -0.21810439 1.1300001 1.4016754e-38
-0.062043935 -0.25139144 1.1478001 1.5768442e-38
-0.056635879 -0.2526294 1.1475716 1.4568482e-38
-0.25302321 -0.27390051 1.1588334 1.5491142e-38
-0.24334085 -0.27485999 1.1590002 1.5582977e-38
-0.23211163 -0.27574709 1.159 1.6043948e-38
-0.060757738 -0.27178892 1.156 1.4476646e-38
-0.055866946 -0.27295345 1.1570001 1.5306036e-38
-0.062850922 -0.26501042 1.1547275 1.4570275e-38
-0.055035766 -0.26541331 1.1543889 1.4753588e-38
0.23601463 -0.29213518 1.1681669 2.1295038e-38
0.24476577 -0.2930308 1.167375 2.2309549e-38
0.25461417 -0.2922805 1.1670002 2.1940768e-38
0.24476293 -0.28473964 1.1647502 2.3417331e-38
0.25438693 -0.28493223 1.1647918 2.3325136e-38
0.2638472 -0.28386116 1.1617857 2.1941485e-38
0.23392892 -0.31215036 1.17875 2.1296121e-38
-0.42748618 -0.36461407 1.197125 1.4017113e-38
-0.42683977 -0.35628068 1.1976668 1.2911138e-38
-0.4145368 -0.35593089 1.199 1.3463973e-38
-0.43206584 -0.38057387 1.2060001 1.2173237e-38
-0.45103687 -0.3745802 1.2085001 1.2077535e-38
-0.44478744 -0.37464845 1.2059234 1.3184175e-38
-0.43461978 -0.37425324 1.2013077 1.3832385e-38
-0.42709351 -0.37275255 1.2032728 1.2175405e-38
-0.44479683 -0.36597016 1.2051432 1.235869e-38
-0.43553367 -0.36477888 1.2010556 1.3187003e-38
-0.42269608 -0.36551636 1.2036431 1.2451278e-38
-0.4168869 -0.36319929 1.2045002 1.079359e-38
-0.42434734 -0.3544718 1.2005715 1.3187726e-38
0.057544485 -0.39380261 1.2181251 1.3924557e-38
0.064479396 -0.39471182 1.2190001 1.3740527e-38
0.071544997 -0.3926591 1.2190001 1.4845064e-38
-0.42925632 -0.38082692 1.2140001 8.4908542e-39
-0.43010437 -0.37957215 1.21 1.0977584e-38
-0.67651045 -0.28572816 1.2110001 8.1121308e-39
0.1445165 -0.42002532 1.2290001 1.5857783e-38
0.16060196 -0.42002532 1.2290001 1.5675917e-38
0.10991333 -0.41147369 1.2275001 1.392351e-38
0.11530004 -0.41214123 1.2290001 1.3094117e-38
0.12551968 -0.41300043 1.2286251 1.2264708e-38
0.13625091 -0.41497013 1.2249334 1.4476655e-38
0.14527789 -0.41431478 1.2257143 1.5303903e-38
0.15497896 -0.41354662 1.2262355 1.5397515e-38
0.16534679 -0.41349816 1.227 1.2449508e-38
0.10761821 -0.40687931 1.2275001 1.0794618e-38
0.12170017 -0.40661064 1.2260001 9.5003243e-39
0.13565125 -0.40559664 1.2246472 1.198812e-38
0.14500065 -0.4043704 1.2233891 1.2632404e-38
0.15479109 -0.40658072 1.2254444 1.2265421e-38
0.16269949 -0.4076376 1.2255555 9.8680377e-39
0.13758421 -0.44198886 1.2390001 1.327597e-38
0.14526707 -0.44264266 1.2386668 1.4753246e-38
0.086950913 -0.43257788 1.2367144 1.5122723e-38
0.09391433 -0.4320333 1.2344002 1.3738738e-38
0.12947604 -0.43039766 1.2390001 1.502946e-38
0.13583699 -0.43439278 1.2371669 1.3738741e-38
0.14455833 -0.43504041 1.2362943 1.4291543e-38
0.15380055 -0.43155676 1.2390001 1.4475571e-38
0.16580354 -0.43152279 1.2384287 1.530427e-38
0.17117521 -0.43155676 1.2390001 1.3368172e-38
0.086085252 -0.42456838 1.2343531 1.3370687e-38
0.095721975 -0.42444429 1.2344739 1.0238227e-38
0.13455416 -0.42522493 1.2333078 1.4108599e-38
0.14533342 -0.42528221 1.2324706 1.4844353e-38
0.15512519 -0.42386028 1.2348002 1.5674454e-38
0.16527209 -0.42415327 1.2360001 1.3923862e-38
0.13083532 -0.41461357 1.23 1.3462511e-38
0.16546664 -0.41840556 1.2310001 1.3003341e-38
0.1482864 -0.46420702 1.2478335 1.318521e-38
0.1548931 -0.46427241 1.2478001 1.3923489e-38
0.16165861 -0.46197101 1.2460001 1.3832363e-38
0.13847256 -0.45184234 1.2470001 1.3738379e-38
0.14626606 -0.45504609 1.2469231 1.4199706e-38
0.15549365 -0.45494786 1.2472857 1.4384814e-38
0.16210942 -0.45461467 1.2450001 1.4200425e-38
0.094718635 -0.44379264 1.2465 1.5581912e-38
0.13544625 -0.44549313 1.2449001 1.3553629e-38
0.14447702 -0.44807273 1.2451668 1.4476653e-38
0.15600236 -0.44547799 1.2448668 1.4384099e-38
0.16544172 -0.4440155 1.2420001 1.4568841e-38
0.17307691 -0.44350442 1.2443335 1.346146e-38
0.095842645 -0.43658024 1.2405715 1.336996e-38
0.13179289 -0.43797451 1.2434001 1.3739095e-38
0.16416052 -0.43679774 1.2429168 1.4753235e-38
-0.51271957 -0.34806103 1.243 8.4812623e-39
0.11960566 -0.48368883 1.2570002 1.4936903e-38
0.12434011 -0.4826405 1.2573334 1.4291907e-38
0.14439835 -0.48289672 1.258 1.5212058e-38
0.2450296 -0.48351613 1.2590001 2.00061e-38
0.11527255 -0.47355625 1.25625 1.2541649e-38
0.12537102 -0.47503299 1.255875 1.2726395e-38
0.13490359 -0.47502142 1.2564667 1.3277404e-38
0.1444508 -0.47481346 1.2554708 1.3646188e-38
0.15455425 -0.47499204 1.2560002 1.4844004e-38
0.22749218 -0.47209117 1.2590001 2.0742943e-38
0.23573124 -0.47150224 1.2590001 2.0465998e-38
0.2450819 -0.47529751 1.2589999 2.0190131e-38
0.1171017 -0.46691319 1.255375 1.2172151e-38
0.12552431 -0.46556672 1.2550668 1.2358331e-38
0.13446496 -0.4649848 1.255059 1.2909344e-38
0.14280954 -0.46503028 1.2526667 1.3001897e-38
0.15433621 -0.46447623 1.2527502 1.4199719e-38
0.16625042 -0.46502912 1.25425 1.3924568e-38
0.13410683 -0.45502868 1.2523078 1.4291902e-38
0.1412558 -0.45680276 1.251 1.3923122e-38
0.15420276 -0.4550975 1.2516668 1.4569205e-38
0.16719283 -0.45602772 1.2508 1.4291906e-38
0.23900586 -0.49227801 1.2670001 1.6040603e-38
0.2436552 -0.49248886 1.2645001 1.2260228e-38
0.11493874 -0.48111627 1.2626002 1.4385182e-38
0.1272281 -0.48705059 1.2626667 1.4476649e-38
0.13502574 -0.48502252 1.2620001 1.4476648e-38
0.1439483 -0.48493275 1.2643335 1.5119869e-38
0.15460631 -0.48361617 1.2645001 1.5120239e-38
0.22620095 -0.48353949 1.266625 1.982206e-38
0.23515898 -0.48380491 1.2639233 2.0558548e-38
0.24295095 -0.48595688 1.2629002 1.880756e-38
0.25175399 -0.48562521 1.2664287 1.1159638e-38
0.15796049 -0.47890812 1.263 1.5396103e-38
0.23531929 -0.47521308 1.2628464 2.0650385e-38
0.24522065 -0.47457048 1.2614168 2.0005381e-38
-0.1007022 -0.51129901 1.279 1.1526794e-38
-0.098310784 -0.51129901 1.279 1.1895925e-38
-0.10420252 -0.50489634 1.2779375 1.2910786e-38
-0.042335585 -0.50527501 1.2766252 1.2539144e-38
-0.034822538 -0.50483179 1.2747501 1.3092658e-38
-0.026187381 -0.50403649 1.275 1.3556139e-38
0.0051070992 -0.50239015 1.2761252 1.4292979e-38
0.12703006 -0.49441499 1.2725 1.5120931e-38
-0.45259318 -0.41829553 1.2800001 8.1128525e-39
-0.63442338 -0.45297283 1.2970001 8.5731076e-39
-0.73150694 -0.44985065 1.2950001 8.3915988e-39
-0.71179873 -0.43845913 1.2900001 7.744786e-39
-0.69787109 -0.45888466 1.3000001 8.3897939e-39
-0.64173603 -0.45959064 1.302 8.2068362e-39
-0.63453758 -0.45824426 1.3011431 8.3894352e-39
-0.61036682 -0.45888466 1.3000001 8.7582093e-39
-0.60678214 -0.45842624 1.3010001 7.5614668e-39
-0.6455133 -0.49560428 1.3184167 8.1135629e-39
-0.33170232 -0.48828918 1.3150002 8.2039607e-39
-0.32611683 -0.4853639 1.3148184 8.8478882e-39
-0.23314117 -0.48588037 1.3138001 9.4006878e-39
-0.65230012 -0.47993824 1.3110001 8.8504077e-39
-0.64935315 -0.47957215 1.3100001 8.9426076e-39
-0.5337227 -0.4790509 1.31025 8.1132042e-39
-0.52831125 -0.47852963 1.3105001 8.5723873e-39
-0.63435704 -0.51456922 1.3283079 7.9291745e-39
-0.47479647 -0.51344699 1.327875 7.652589e-39
-0.65563178 -0.50826609 1.3251667 8.1132098e-39
-0.64584064 -0.50631851 1.325182 7.8377005e-39
-0.6339305 -0.50650424 1.3245715 8.0213673e-39
-0.57647133 -0.5063917 1.3239233 8.1128455e-39
-0.44710907 -0.50575477 1.3240001 7.8337489e-39
-0.39507875 -0.50623286 1.3238571 8.572739e-39
-0.68001956 -0.49880642 1.322 7.4685621e-39
-0.67703521 -0.49842912 1.3210001 7.560036e-39
-0.47274482 -0.49918374 1.3230002 7.9270151e-39
-0.46603304 -0.49738288 1.3215001 8.0199352e-39
-0.45563036 -0.49805179 1.3200001 8.6635053e-39
-0.44724566 -0.49709898 1.3207501 8.0195681e-39
-0.39081776 -0.49880642 1.322 8.6652864e-39
-0.38340232 -0.49880642 1.322 8.9411614e-39
-0.46218872 -0.53277951 1.3390001 7.4671244e-39
-0.45331323 -0.535151 1.3386668 7.6522205e-39
-0.75160557 -0.52494562 1.335 7.6533079e-39
-0.7459392 -0.52515191 1.3350717 7.561115e-39
-0.66394806 -0.52612829 1.3348335 8.0213743e-39
-0.65682471 -0.52487737 1.3364167 8.022089e-39
-0.64451116 -0.5246563 1.3338749 8.0210058e-39
-0.51623982 -0.52378643 1.333111 7.8359069e-39
-0.48348638 -0.52640522 1.3347501 8.1117665e-39
-0.47507018 -0.52553332 1.3365 8.0206485e-39
-0.74452764 -0.51533401 1.3300002 7.8377005e-39
-0.73822188 -0.51737809 1.33 7.8373334e-39
-0.70900232 -0.51800025 1.33 7.1916179e-39
-0.66324586 -0.51695025 1.3305001 8.0206611e-39
-0.65565073 -0.51733875 1.3315001 8.1139315e-39
-0.64526397 -0.5153743 1.3312501 7.7458636e-39
-0.63736486 -0.5158993 1.3310001 8.1135629e-39
-0.51567924 -0.51823366 1.3316667 7.2834534e-39
-0.48040017 -0.51819539 1.3305001 8.2958088e-39
-0.47482061 -0.51882488 1.3302001 7.7437042e-39
-0.46671736 -0.5194397 1.3305001 8.6667241e-39
-0.40570951 -0.51740295 1.3316667 8.5727474e-39
-0.36859199 -0.51963484 1.3310001 7.9277396e-39
-0.53490484 -0.55369312 1.3487501 7.8369761e-39
-0.75451058 -0.54571176 1.3446251 7.7451448e-39
-0.63520771 -0.54644054 1.3448752 8.113207e-39
-0.62845355 -0.54718179 1.3456668 8.1128455e-39
-0.59533077 -0.54542714 1.3449092 7.9284556e-39
-0.58542114 -0.54501015 1.344923 8.0199324e-39
-0.51428461 -0.54582155 1.3445387 7.9295374e-39
-0.48300067 -0.54509956 1.3446668 7.2845324e-39
-0.47427836 -0.54446936 1.3456001 8.0199282e-39
-0.46464768 -0.54505962 1.3461249 8.2961577e-39
-0.75393492 -0.53641182 1.34025 7.4685537e-39
-0.74996889 -0.53859347 1.3410001 7.2838079e-39
-0.73492122 -0.53859353 1.3410001 7.4689082e-39
-0.72418153 -0.53899515 1.342 7.6522275e-39
-0.66118073 -0.534769 1.3440001 8.0224463e-39
-0.6541149 -0.5340485 1.3412859 7.5614752e-39
-0.64793837 -0.53568465 1.34 7.6522373e-39
-0.52112949 -0.53919595 1.3425 8.8489602e-39
-0.51346421 -0.53881425 1.3428 7.3763622e-39
-0.50496119 -0.53762388 1.3406668 7.7444203e-39
-0.48291287 -0.53553724 1.3414286 7.8359027e-39
-0.47575554 -0.53489178 1.3422 8.4801889e-39
-0.46550438 -0.53531379 1.3425556 7.927734e-39
-0.45523015 -0.5340113 1.3421 7.6518687e-39
-0.44892126 -0.53463137 1.3405001 7.5596801e-39
-0.23596521 -0.53859347 1.3410001 9.1208779e-39
-0.22827284 -0.53568465 1.34 8.5709482e-39
-0.65420198 -0.52690935 1.34 8.1135658e-39
-0.62155163 -0.57379341 1.3590001 7.561122e-39
-0.58935523 -0.57083023 1.358 7.5625458e-39
-0.56322545 -0.57263035 1.3577499 7.9284542e-39
-0.55496728 -0.57161844 1.357286 7.7440602e-39
-0.46624881 -0.572788 1.3581251 7.2830876e-39
-0.65615505 -0.56572616 1.3549001 8.1139287e-39
-0.58568001 -0.5640229 1.3553751 7.560392e-39
-0.57510471 -0.56632835 1.3553333 7.5618325e-39
-0.56440616 -0.5677743 1.35525 8.0217289e-39
-0.76042598 -0.55511117 1.3506668 7.6540169e-39
-0.75567341 -0.55684704 1.3512 7.4685621e-39
-0.63636661 -0.5568586 1.35 7.4681991e-39
-0.59480315 -0.55759114 1.3514287 8.1121266e-39
-0.58451968 -0.5568946 1.351091 8.2046796e-39
-0.57389355 -0.5567323 1.35 8.0210114e-39
-0.5682143 -0.55736375 1.3500001 8.1128469e-39
-0.5341987 -0.55871773 1.35175 8.0213631e-39
-0.52277929 -0.55736375 1.35 7.9281039e-39
-0.50043225 -0.55777663 1.3510001 9.4032242e-39
-0.4736954 -0.55901521 1.3540001 8.0206471e-39
-0.41202107 -0.55777663 1.3510001 8.2965151e-39
-0.37440753 -0.55818951 1.3520001 8.3890764e-39
-0.36598974 -0.55851132 1.3512502 7.7447818e-39
-0.34230161 -0.5523119 1.35 8.7560541e-39
-0.32483336 -0.55686551 1.3508334 8.6635053e-39
-0.30317709 -0.55736375 1.35 8.1135644e-39
-0.0002777495 -0.55777663 1.3510001 1.0049657e-38
-0.34230161 -0.54978597 1.35 8.4809035e-39
-0.75461113 -0.59199584 1.36875 6.4558549e-39
-0.34599802 -0.59175384 1.3676001 8.0210058e-39
-0.33023983 -0.5903914 1.368 8.1139371e-39
-0.16662124 -0.59067911 1.3686666 9.4936177e-39
-0.15375036 -0.5903914 1.368 8.7596484e-39
-0.14362399 -0.59082294 1.3690001 9.0348018e-39
-0.77046609 -0.58676589 1.3685 6.9175463e-39
-0.76504803 -0.58484411 1.3662502 7.1926913e-39
-0.75686616 -0.58663124 1.3652 7.0079427e-39
-0.66622132 -0.58505666 1.3655 7.5600332e-39
-0.63565409 -0.58430004 1.3657274 7.6533149e-39
-0.62454307 -0.5851447 1.3651427 7.8376963e-39
-0.61414325 -0.58474809 1.3654447 7.2852414e-39
-0.60471916 -0.58473992 1.3644615 7.4685537e-39
-0.59536505 -0.58371925 1.3649092 7.4685579e-39
-0.58484173 -0.58487904 1.368 7.4681949e-39
-0.57470757 -0.58488429 1.3676364 7.4682034e-39
-0.56409675 -0.58604485 1.366647 7.5611122e-39
-0.55522877 -0.58654898 1.367182 7.7455049e-39
-0.54552341 -0.58523625 1.3656156 7.6529561e-39
-0.4750489 -0.58398801 1.3642501 7.8359055e-39
-0.46640831 -0.5841772 1.3647778 7.7444217e-39
-0.16445683 -0.58385628 1.3637693 9.1255583e-39
-0.76369894 -0.57718438 1.3610001 7.4692767e-39
-0.66371405 -0.57665169 1.3627501 7.7444259e-39
-0.65619355 -0.57612032 1.3630002 7.6522303e-39
-0.64597493 -0.57718384 1.3615457 8.2046866e-39
-0.63530666 -0.57601738 1.36125 8.0213743e-39
-0.62474442 -0.57709008 1.360111 7.8369831e-39
-0.61488545 -0.5777905 1.3607144 7.4689138e-39
-0.60656178 -0.57654774 1.3610001 7.7444231e-39
-0.59252 -0.57732385 1.3633335 7.745142e-39
-0.58499658 -0.57498199 1.3623638 7.4696341e-39
-0.57480842 -0.57521498 1.3618184 7.7454993e-39
-0.56435192 -0.57760847 1.3620001 7.5603906e-39
-0.55543876 -0.57697135 1.3620001 7.744786e-39
-0.54617018 -0.57815433 1.3615716 7.8369789e-39
-0.53477186 -0.57856363 1.36125 7.3763636e-39
-0.50346565 -0.57647663 1.3603334 8.2972381e-39
-0.46722019 -0.5787394 1.3646667 7.6518715e-39
-0.42278218 -0.57856315 1.36125 8.1132014e-39
-0.4185361 -0.57845664 1.3640001 8.2057502e-39
-0.32576573 -0.57294333 1.36 7.5596717e-39
-0.19356105 -0.57555836 1.3601668 9.1262743e-39
-0.16462514 -0.57792652 1.3627501 9.4929059e-39
-0.58571184 -0.56968427 1.3613334 7.5611094e-39
-0.76171058 -0.59517926 1.3711667 6.8246346e-39
-0.75371087 -0.5951044 1.3706 6.5473359e-39
-0.74880278 -0.59553397 1.3710001 6.7309956e-39
-0.73306489 -0.59652632 1.3703334 7.928813e-39
-0.72776407 -0.59638125 1.3700001 8.2968822e-39
-0.68368411 -0.59575021 1.3715 7.5607549e-39
-0.67562157 -0.5967077 1.3707502 8.2972339e-39
-0.63449556 -0.59399688 1.3716 7.5603962e-39
-0.62459147 -0.59435922 1.37125 7.5614752e-39
-0.60993242 -0.59381789 1.3700002 7.5604004e-39
-0.59480506 -0.59406424 1.3721819 7.3770839e-39
-0.58688009 -0.59537274 1.3724002 7.4689236e-39
-0.55485892 -0.59638125 1.3700001 7.0093874e-39
-0.5453077 -0.59714305 1.3717501 7.4682048e-39
-0.53364325 -0.59567189 1.3703334 8.1132014e-39
-0.52796257 -0.59638125 1.3700001 7.7455049e-39
-0.48270842 -0.59210896 1.3700002 7.1004998e-39
-0.47545063 -0.59253621 1.37 7.4682019e-39
-0.46776599 -0.59253621 1.3700001 7.4692725e-39
-0.39633143 -0.59296876 1.3710001 8.2061257e-39
-0.38470185 -0.59282458 1.3706669 8.757482e-39
-0.37710577 -0.59339631 1.3710001 8.5730978e-39
-0.34121776 -0.59425133 1.3710001 8.9422334e-39
-0.33497107 -0.59368467 1.3716668 8.7582163e-39
-0.66244435 -0.58356446 1.3700001 7.7447804e-39
-0.63519317 -0.58955055 1.3720001 7.8380579e-39
-0.62621462 -0.58955055 1.3720001 7.5618339e-39
-0.59584385 -0.5874095 1.3700001 7.3763594e-39
-0.47160834 -0.58869117 1.3700001 8.0202897e-39
-0.39604238 -0.58869117 1.3700001 8.2976039e-39
